ply
format ascii 1.0
element vertex 2281
property float x
property float y
property float z
end_header
21.90 78.15 420.10 
22.65 78.15 420.25 
23.55 78.05 419.55 
24.30 78.05 419.70 
25.15 78.00 419.35 
26.15 77.80 418.35 
26.75 77.95 419.15 
27.60 77.90 418.80 
28.40 77.85 418.70 
29.30 77.75 418.15 
30.20 77.65 417.50 
30.80 77.80 418.35 
31.60 77.80 418.40 
32.40 77.75 418.15 
32.95 77.95 419.10 
33.90 77.80 418.25 
34.65 77.80 418.35 
35.50 77.75 418.10 
36.15 77.85 418.50 
37.15 77.60 417.30 
37.95 77.60 417.30 
38.60 77.70 417.85 
39.30 77.75 418.10 
40.00 77.90 418.65 
40.65 77.95 419.15 
41.50 77.90 418.75 
42.25 77.90 418.80 
43.15 77.80 418.10 
43.75 77.90 418.85 
44.70 77.70 417.75 
45.20 78.00 419.40 
45.85 78.15 420.00 
46.95 77.75 417.90 
48.45 77.80 418.15 
49.65 78.15 420.00 
50.55 78.00 419.25 
51.40 77.90 418.75 
52.05 78.05 419.45 
52.85 78.00 419.25 
53.80 77.80 418.05 
54.40 77.95 419.10 
55.35 77.65 417.50 
56.05 77.80 418.10 
56.75 77.85 418.45 
57.55 77.75 417.95 
58.35 77.75 417.90 
59.10 77.75 417.95 
59.85 77.75 417.80 
60.60 77.75 418.00 
61.40 77.70 417.60 
62.15 77.70 417.70 
62.85 77.75 417.95 
64.20 77.95 418.95 
65.00 77.95 418.80 
65.80 77.85 418.35 
66.65 77.70 417.65 
67.45 77.65 417.30 
68.10 77.80 417.95 
68.95 77.60 417.05 
69.65 77.70 417.60 
70.45 77.65 417.15 
71.80 77.85 418.30 
72.60 77.80 418.10 
73.40 77.70 417.60 
74.15 77.65 417.30 
74.85 77.75 417.90 
75.55 77.85 418.35 
76.30 77.80 418.10 
77.00 77.95 418.85 
77.60 78.20 420.05 
78.45 78.05 419.30 
79.25 77.90 418.65 
79.90 78.10 419.50 
80.70 78.00 419.10 
81.40 78.15 419.95 
82.10 78.20 420.15 
82.85 78.20 420.00 
84.25 78.45 421.50 
85.60 78.70 422.90 
86.35 78.70 422.75 
87.10 78.80 423.30 
87.80 78.90 423.75 
88.55 78.90 423.95 
89.35 78.85 423.65 
90.05 78.90 423.90 
90.80 78.95 424.20 
91.60 78.80 423.25 
92.35 78.85 423.45 
93.10 78.90 423.85 
93.85 78.75 423.00 
94.60 78.85 423.55 
95.35 78.80 423.15 
96.15 78.75 422.90 
96.85 78.85 423.40 
97.60 78.90 423.70 
98.35 78.85 423.50 
99.15 78.75 422.80 
99.90 78.75 423.05 
100.60 78.90 423.80 
101.30 79.05 424.60 
102.10 78.95 424.05 
102.80 78.95 424.05 
103.55 79.00 424.40 
104.30 78.95 424.05 
105.10 78.95 423.95 
105.85 78.90 423.80 
106.60 79.00 424.25 
107.30 79.10 424.75 
108.10 78.90 423.75 
108.80 79.05 424.45 
109.60 78.95 423.90 
110.35 78.95 423.90 
111.10 78.90 423.70 
111.80 78.95 423.95 
112.55 79.10 424.65 
113.35 78.90 423.60 
114.10 78.75 422.75 
114.85 78.80 423.10 
115.60 78.85 423.30 
116.35 79.05 424.50 
117.10 78.90 423.65 
117.80 79.00 424.10 
118.60 78.90 423.70 
119.30 78.90 423.55 
120.10 78.85 423.35 
120.80 78.80 423.15 
121.55 78.85 423.45 
122.35 78.90 423.50 
123.05 78.85 423.25 
123.80 78.85 423.20 
125.35 79.10 424.65 
126.05 78.95 423.85 
126.80 79.00 424.05 
127.55 78.90 423.70 
128.30 78.90 423.70 
129.10 79.10 424.55 
129.80 78.85 423.35 
130.55 78.75 422.85 
131.30 78.95 423.90 
132.05 79.00 424.00 
132.80 78.85 423.20 
133.55 78.90 423.55 
134.30 78.90 423.55 
135.05 78.95 423.70 
135.80 78.85 423.30 
136.50 78.75 422.75 
137.30 78.85 423.30 
138.00 78.70 422.55 
138.80 78.90 423.55 
139.55 78.80 423.00 
140.30 78.85 423.40 
141.55 78.05 419.00 
142.25 77.80 417.75 
142.95 77.65 416.80 
143.65 77.65 416.70 
144.30 77.35 415.35 
145.10 77.45 415.90 
145.80 77.35 415.15 
146.55 77.25 414.60 
147.30 77.25 414.70 
148.05 77.40 415.50 
148.75 77.25 414.75 
149.45 77.15 414.20 
150.25 77.25 414.65 
150.95 77.15 414.25 
151.70 77.20 414.55 
152.40 77.15 414.05 
153.15 77.15 414.10 
153.85 77.15 414.10 
154.60 77.15 414.10 
155.40 77.25 414.80 
156.10 77.20 414.35 
156.80 77.15 414.10 
156.50 76.45 410.55 
160.10 77.75 417.45 
160.75 77.65 416.75 
161.55 77.70 417.10 
162.35 77.85 417.85 
163.15 77.85 418.10 
-526.95 236.20 1258.60 
-523.40 235.95 1257.05 
-521.45 236.25 1258.80 
-519.40 236.55 1260.25 
-516.60 236.55 1260.20 
-513.15 236.30 1258.80 
-510.45 236.35 1259.05 
-507.25 236.15 1258.10 
-504.95 236.30 1258.95 
-503.30 236.75 1261.25 
-498.60 236.05 1257.35 
-496.55 236.30 1258.75 
-492.85 235.90 1256.70 
-491.65 236.50 1259.95 
-487.00 235.80 1256.05 
-485.70 236.30 1258.85 
-482.90 236.30 1258.65 
-479.80 236.15 1257.90 
-475.40 235.50 1254.40 
-473.80 235.90 1256.60 
-470.95 235.85 1256.30 
-468.45 235.95 1256.80 
-465.30 235.75 1255.75 
-464.50 236.50 1259.80 
-460.45 235.95 1256.90 
-457.00 235.65 1255.25 
-455.55 236.15 1257.90 
-453.50 236.40 1259.25 
-449.20 235.75 1255.65 
-446.35 235.65 1255.15 
-444.80 236.15 1257.70 
-440.90 235.60 1254.80 
-439.45 236.10 1257.45 
-435.75 235.65 1255.25 
-224.90 128.05 682.05 
-373.90 214.50 1142.45 
-369.90 214.75 1144.05 
-366.00 214.10 1140.60 
-359.70 212.35 1131.20 
-355.20 214.55 1142.95 
-350.10 213.30 1136.30 
-347.85 213.35 1136.50 
-343.25 212.30 1131.05 
-338.10 211.00 1123.95 
-338.65 213.40 1136.75 
-338.05 214.20 1141.10 
-333.30 213.05 1135.00 
-330.30 212.70 1133.25 
-327.20 212.35 1131.20 
-321.95 210.90 1123.75 
-218.70 149.80 798.25 
-273.75 205.70 1096.25 
-31.15 83.25 444.20 
-27.15 78.75 420.20 
-26.45 78.80 420.65 
-25.50 78.75 420.25 
-24.65 78.70 420.15 
-23.65 78.65 419.70 
-23.10 78.75 420.40 
-22.25 78.75 420.35 
-21.30 78.70 420.00 
-20.45 78.70 420.00 
-19.35 78.50 419.10 
-18.65 78.55 419.40 
-17.60 78.90 421.25 
-16.50 79.25 422.95 
-15.80 79.30 423.35 
-15.00 79.30 423.35 
-13.65 79.00 421.75 
-12.60 78.90 421.10 
-11.80 78.85 421.00 
-10.65 78.70 420.05 
-9.85 78.70 420.00 
-9.00 78.65 419.95 
-8.20 78.65 419.90 
-7.45 78.70 420.10 
-6.50 78.60 419.65 
-5.80 78.65 419.90 
-4.80 78.55 419.35 
-4.00 78.55 419.25 
-3.20 78.55 419.20 
-2.40 78.55 419.40 
-1.80 78.65 419.90 
-0.90 78.60 419.65 
0.10 78.45 418.80 
0.90 78.45 418.75 
1.65 78.50 419.00 
2.50 78.45 418.90 
3.30 78.45 418.85 
4.00 78.55 419.25 
5.00 78.40 418.40 
5.55 78.55 419.25 
6.45 78.45 418.90 
7.15 78.50 419.10 
8.05 78.45 418.85 
8.75 78.50 419.05 
9.50 78.55 419.35 
10.15 78.65 419.90 
10.75 78.80 420.70 
11.70 78.70 420.05 
12.70 78.50 419.20 
13.30 78.65 419.95 
14.05 78.70 420.05 
14.80 78.70 420.20 
15.80 78.55 419.25 
16.65 78.50 418.95 
17.45 78.50 419.05 
18.35 78.40 418.45 
19.15 78.35 418.35 
19.70 78.55 419.30 
20.65 78.40 418.60 
21.25 78.60 419.55 
21.95 78.65 419.80 
22.55 78.80 420.55 
23.30 78.80 420.75 
24.20 78.70 420.15 
25.20 78.55 419.30 
26.10 78.45 418.65 
26.85 78.45 418.80 
27.55 78.50 419.10 
28.35 78.50 418.95 
29.25 78.40 418.40 
30.10 78.30 418.00 
30.70 78.45 418.75 
31.45 78.50 418.90 
32.30 78.45 418.65 
32.85 78.60 419.60 
33.90 78.35 418.20 
34.60 78.40 418.55 
35.45 78.35 418.20 
36.15 78.40 418.55 
37.20 78.15 417.00 
37.90 78.20 417.45 
38.50 78.35 418.30 
39.30 78.35 418.30 
39.95 78.45 418.80 
40.70 78.50 418.90 
41.50 78.45 418.80 
42.30 78.40 418.55 
43.15 78.35 418.05 
43.90 78.35 418.10 
44.75 78.25 417.60 
45.20 78.55 419.30 
45.95 78.60 419.50 
46.95 78.30 417.95 
47.75 78.30 417.90 
48.50 78.30 417.80 
49.10 78.45 418.75 
49.70 78.70 419.90 
50.60 78.50 419.00 
51.35 78.55 419.25 
52.05 78.65 419.60 
52.85 78.55 419.25 
53.75 78.35 418.10 
55.15 78.50 418.80 
56.05 78.35 418.10 
56.70 78.50 418.80 
57.60 78.25 417.60 
58.30 78.35 418.15 
59.15 78.25 417.60 
59.85 78.30 417.85 
60.55 78.40 418.25 
61.40 78.30 417.65 
62.15 78.30 417.75 
62.90 78.25 417.55 
64.25 78.50 418.70 
65.05 78.45 418.55 
65.85 78.35 417.90 
66.65 78.30 417.60 
67.35 78.35 417.95 
68.20 78.25 417.45 
68.95 78.20 417.25 
69.65 78.25 417.55 
70.50 78.10 416.75 
71.80 78.45 418.55 
72.65 78.30 417.60 
73.35 78.35 417.85 
74.10 78.30 417.70 
74.85 78.35 418.00 
75.55 78.45 418.55 
76.35 78.35 417.85 
77.00 78.55 418.90 
77.65 78.70 419.85 
78.45 78.60 419.25 
79.20 78.55 419.00 
79.95 78.55 419.00 
80.70 78.55 419.05 
81.40 78.70 419.65 
82.10 78.80 420.30 
82.80 78.85 420.60 
83.60 78.85 420.40 
84.30 78.90 420.90 
84.90 79.25 422.75 
85.60 79.30 423.00 
86.40 79.20 422.30 
87.10 79.35 423.10 
87.80 79.50 423.95 
88.55 79.50 424.05 
89.35 79.40 423.40 
90.05 79.55 424.20 
90.80 79.50 423.90 
91.60 79.40 423.50 
92.35 79.40 423.40 
93.05 79.50 423.95 
93.85 79.35 423.15 
94.55 79.50 423.95 
95.35 79.35 423.00 
96.10 79.40 423.40 
96.85 79.35 423.15 
97.60 79.45 423.65 
98.35 79.35 423.20 
99.15 79.30 422.90 
99.85 79.45 423.60 
100.60 79.55 424.05 
101.30 79.60 424.30 
102.10 79.55 424.10 
102.80 79.55 424.05 
103.60 79.55 424.10 
104.35 79.45 423.70 
105.10 79.55 424.15 
105.85 79.45 423.50 
106.60 79.55 424.05 
107.30 79.60 424.45 
108.10 79.55 424.15 
108.85 79.55 424.20 
109.60 79.55 424.05 
110.35 79.50 423.70 
111.10 79.50 423.90 
111.80 79.65 424.70 
112.60 79.55 424.10 
113.35 79.40 423.15 
114.10 79.35 422.95 
114.85 79.40 423.25 
115.60 79.45 423.40 
116.35 79.60 424.35 
117.10 79.55 424.05 
117.85 79.50 423.80 
118.60 79.45 423.50 
119.30 79.50 423.65 
120.10 79.40 423.15 
120.80 79.40 423.20 
121.55 79.45 423.50 
122.35 79.35 423.05 
123.10 79.45 423.50 
123.85 79.60 424.30 
124.60 79.60 424.35 
125.35 79.80 425.20 
126.05 79.35 422.80 
126.80 79.55 423.95 
127.55 79.60 424.20 
128.35 79.60 424.15 
129.10 79.65 424.50 
129.80 79.55 423.95 
130.55 79.35 422.85 
131.30 79.55 423.90 
132.10 79.60 424.15 
132.80 79.45 423.50 
133.55 79.50 423.65 
134.30 79.50 423.60 
135.05 79.45 423.35 
135.80 79.50 423.80 
136.50 79.35 422.80 
137.30 79.40 423.25 
138.05 79.35 422.90 
138.80 79.45 423.50 
139.55 79.35 423.00 
140.30 79.50 423.70 
141.00 79.25 422.35 
141.60 78.75 419.65 
142.25 78.30 417.35 
142.95 78.25 417.00 
143.70 78.25 417.05 
144.30 77.90 415.05 
145.10 78.05 416.10 
145.80 77.90 415.15 
146.55 77.85 414.80 
147.25 77.75 414.50 
148.05 77.85 414.95 
148.75 77.80 414.65 
149.45 77.75 414.30 
150.20 77.75 414.35 
150.95 77.70 414.15 
151.70 77.85 414.80 
152.40 77.70 414.20 
153.15 77.75 414.50 
153.85 77.65 413.80 
154.60 77.70 414.15 
155.35 77.70 414.20 
156.15 77.80 414.55 
156.85 77.75 414.45 
157.65 77.85 414.90 
158.45 78.00 415.80 
159.15 78.00 415.60 
160.00 78.10 416.35 
160.80 78.25 417.05 
161.55 78.30 417.35 
162.30 78.30 417.35 
163.15 78.40 418.00 
-527.30 238.05 1259.25 
-523.90 237.85 1258.05 
-521.40 237.95 1258.65 
-518.20 237.80 1257.85 
-516.40 238.20 1259.90 
-513.65 238.15 1259.75 
-511.10 238.30 1260.35 
-507.65 238.00 1258.95 
-504.35 237.80 1257.75 
-501.20 237.65 1256.95 
-499.45 238.05 1259.05 
-496.40 237.95 1258.45 
-494.10 238.10 1259.20 
-491.60 238.20 1259.85 
-488.15 237.95 1258.40 
-486.05 238.15 1259.60 
-483.10 238.10 1259.15 
-480.10 237.95 1258.55 
-476.45 237.60 1256.65 
-475.10 238.15 1259.40 
-471.20 237.65 1256.85 
-468.95 237.85 1257.85 
-465.30 237.45 1255.75 
-464.60 238.25 1260.00 
-461.35 238.05 1258.90 
-457.95 237.75 1257.30 
-454.45 237.40 1255.45 
-453.40 238.05 1259.00 
-448.60 237.15 1254.20 
-447.50 237.85 1257.70 
-445.25 238.00 1258.65 
-440.40 237.10 1253.75 
-439.65 237.90 1257.95 
-433.70 236.50 1250.65 
-315.50 174.20 921.25 
-251.40 140.75 744.35 
-376.60 216.15 1143.10 
-206.65 119.00 629.30 
-373.55 216.90 1147.15 
-368.10 215.55 1139.85 
-363.95 214.75 1135.75 
-358.05 216.35 1144.15 
-352.95 215.10 1137.60 
-349.30 214.50 1134.35 
-345.90 214.00 1131.70 
-338.50 213.80 1130.75 
-336.95 215.25 1138.40 
-332.15 214.05 1132.10 
-329.45 213.85 1131.10 
-324.55 212.60 1124.45 
-99.80 147.30 780.10 
-27.45 79.45 421.05 
-26.30 79.30 420.10 
-25.65 79.35 420.60 
-24.80 79.35 420.60 
-23.70 79.20 419.75 
-23.00 79.30 420.15 
-22.20 79.30 420.30 
-21.10 79.15 419.45 
-20.50 79.30 420.15 
-19.40 79.10 419.25 
-18.75 79.20 419.80 
-18.05 79.30 420.20 
-17.50 79.45 421.05 
-17.00 79.65 422.05 
-16.30 79.70 422.40 
-15.55 79.75 422.60 
-14.75 79.75 422.60 
-13.55 79.50 421.35 
-12.55 79.40 420.80 
-11.65 79.35 420.55 
-10.75 79.30 420.35 
-9.85 79.25 420.00 
-9.00 79.25 419.90 
-8.25 79.25 420.10 
-7.35 79.20 419.85 
-6.85 79.40 420.80 
-5.85 79.25 420.10 
-4.95 79.20 419.75 
-4.30 79.30 420.40 
-3.65 79.40 420.85 
-2.55 79.25 419.90 
-1.75 79.20 419.75 
-0.80 79.15 419.40 
0.10 79.00 418.75 
0.80 79.10 419.20 
1.50 79.15 419.60 
2.30 79.15 419.55 
3.10 79.15 419.50 
3.95 79.10 419.30 
4.80 79.10 419.20 
5.65 79.00 418.80 
6.40 79.05 419.00 
7.15 79.10 419.20 
8.10 79.00 418.65 
8.75 79.05 419.05 
9.55 79.10 419.25 
10.25 79.15 419.50 
10.75 79.40 420.70 
11.70 79.25 420.05 
12.60 79.15 419.45 
13.25 79.25 419.95 
14.10 79.20 419.85 
14.80 79.30 420.25 
15.75 79.15 419.60 
16.65 79.10 419.10 
17.65 78.90 418.25 
18.40 78.95 418.30 
19.10 79.00 418.70 
19.70 79.15 419.45 
20.60 79.05 419.00 
21.30 79.15 419.40 
21.90 79.25 420.10 
22.55 79.35 420.60 
23.15 79.50 421.30 
24.30 79.25 419.90 
25.20 79.10 419.30 
26.00 79.05 419.00 
26.85 79.00 418.70 
27.60 79.05 418.90 
28.20 79.20 419.60 
28.95 79.20 419.80 
29.70 79.25 419.95 
30.60 79.15 419.40 
31.45 79.05 419.05 
32.15 79.10 419.30 
32.70 79.30 420.35 
33.70 79.10 419.20 
34.65 78.95 418.45 
35.35 79.05 418.85 
36.15 79.00 418.55 
37.15 78.75 417.35 
37.90 78.80 417.50 
38.50 78.95 418.25 
39.30 78.90 418.20 
39.90 79.10 419.25 
40.70 79.05 418.90 
41.50 79.05 418.90 
42.25 79.05 418.75 
43.05 79.00 418.50 
43.95 78.85 417.75 
44.75 78.85 417.70 
45.25 79.15 419.25 
46.10 79.00 418.65 
46.95 78.90 418.00 
47.70 78.95 418.20 
48.50 78.85 417.85 
49.30 78.85 417.80 
50.65 79.05 418.90 
51.25 79.20 419.70 
52.05 79.15 419.35 
52.90 79.05 418.90 
53.70 79.00 418.55 
54.55 78.90 418.05 
55.05 79.20 419.65 
55.95 79.05 418.70 
56.85 78.85 417.70 
57.50 78.95 418.30 
58.35 78.90 417.85 
59.00 79.00 418.40 
59.85 78.90 417.80 
60.60 78.90 417.90 
61.35 78.90 418.05 
62.15 78.80 417.55 
62.95 78.80 417.40 
64.25 79.05 418.75 
65.10 78.95 418.05 
65.85 78.90 417.95 
66.60 78.90 417.80 
67.40 78.85 417.50 
68.15 78.85 417.60 
68.95 78.80 417.35 
69.65 78.85 417.60 
70.40 78.85 417.60 
71.15 78.90 417.80 
71.80 79.00 418.55 
72.55 79.00 418.35 
73.35 78.90 417.95 
74.10 78.90 417.80 
74.85 78.90 417.80 
75.55 79.00 418.40 
76.35 78.90 417.75 
76.95 79.15 419.30 
77.75 79.10 418.90 
78.45 79.15 419.10 
79.25 79.10 418.90 
80.00 79.10 418.80 
80.70 79.15 419.05 
81.45 79.20 419.50 
82.15 79.30 419.95 
82.85 79.40 420.40 
83.55 79.45 420.65 
84.90 79.85 422.75 
86.45 79.70 422.00 
87.10 79.95 423.35 
87.80 80.05 423.90 
88.55 80.05 423.95 
89.30 80.05 423.80 
90.05 80.15 424.35 
90.85 80.00 423.50 
91.55 80.05 423.85 
92.35 80.05 423.70 
93.10 80.05 423.75 
93.85 80.00 423.65 
94.60 80.05 423.75 
95.35 79.95 423.30 
96.10 79.95 423.25 
96.85 80.00 423.50 
97.60 80.05 423.75 
98.35 80.05 423.70 
99.15 79.90 422.85 
99.85 80.15 424.20 
100.55 80.15 424.30 
101.35 80.10 424.05 
102.05 80.20 424.50 
102.85 80.10 424.05 
103.60 80.00 423.35 
104.35 80.10 423.85 
105.05 80.20 424.60 
105.80 80.20 424.45 
106.55 80.25 424.65 
107.35 80.10 424.05 
108.10 80.20 424.55 
108.85 80.10 424.10 
109.55 80.15 424.25 
110.35 80.10 424.05 
111.10 80.05 423.70 
111.80 80.25 424.80 
112.60 80.10 424.00 
113.35 80.00 423.35 
114.10 80.05 423.55 
114.85 80.10 423.85 
115.60 80.10 423.85 
116.35 80.05 423.70 
117.10 80.10 423.85 
117.85 80.10 424.00 
118.60 80.05 423.60 
119.30 80.05 423.70 
120.10 80.10 423.80 
120.85 80.05 423.50 
121.60 80.10 423.85 
122.35 80.05 423.70 
123.10 80.10 423.80 
123.85 80.25 424.55 
124.60 80.15 424.05 
125.35 80.20 424.50 
126.05 79.85 422.40 
126.80 80.20 424.40 
127.55 80.15 424.05 
128.35 80.20 424.30 
129.10 80.25 424.55 
129.80 80.10 423.85 
130.55 80.10 423.80 
131.30 80.15 424.10 
132.05 80.10 423.90 
132.80 80.00 423.35 
133.55 80.10 423.75 
134.30 79.90 422.75 
135.05 80.05 423.55 
135.80 80.10 423.70 
136.55 79.95 423.15 
137.25 79.90 422.70 
138.05 80.00 423.20 
138.75 79.85 422.55 
139.55 80.00 423.30 
140.30 80.00 423.20 
141.00 79.80 422.25 
141.65 79.45 420.30 
142.20 78.85 417.15 
142.95 78.80 416.80 
143.70 78.80 416.95 
144.30 78.45 415.05 
145.10 78.65 416.05 
145.85 78.55 415.65 
146.55 78.40 414.90 
147.25 78.35 414.60 
148.00 78.35 414.70 
148.75 78.40 414.75 
149.50 78.35 414.55 
150.25 78.35 414.65 
150.95 78.40 414.75 
151.70 78.35 414.65 
152.45 78.35 414.60 
153.15 78.25 414.05 
153.80 78.15 413.40 
154.60 78.25 413.95 
155.35 78.25 414.20 
156.10 78.30 414.30 
156.90 78.50 415.30 
157.65 78.50 415.30 
158.40 78.45 415.20 
159.10 78.40 414.80 
159.95 78.60 415.85 
160.75 78.70 416.50 
161.55 78.80 417.00 
161.10 78.00 412.70 
-531.20 240.15 1261.45 
-528.00 240.00 1260.60 
-522.90 239.15 1256.10 
-521.55 239.70 1259.00 
-518.25 239.55 1258.05 
-516.65 240.00 1260.40 
-514.60 240.25 1261.70 
-510.10 239.60 1258.35 
-508.25 239.95 1260.15 
-505.10 239.80 1259.30 
-502.35 239.80 1259.35 
-499.35 239.75 1258.95 
-496.75 239.80 1259.20 
-493.65 239.65 1258.35 
-490.85 239.60 1258.25 
-488.20 239.65 1258.50 
-485.65 239.75 1258.80 
-483.40 239.90 1259.75 
-479.85 239.60 1258.00 
-476.45 239.35 1256.65 
-473.90 239.35 1256.80 
-472.15 239.75 1258.90 
-468.60 239.40 1257.10 
-466.45 239.65 1258.30 
-462.45 239.10 1255.35 
-460.60 239.45 1257.25 
-456.95 239.05 1255.20 
-454.50 239.15 1255.60 
-452.65 239.50 1257.40 
-449.40 239.25 1256.10 
-446.55 239.15 1255.55 
-444.05 239.20 1256.05 
-441.35 239.20 1255.80 
-439.35 239.45 1257.25 
-279.10 153.70 807.15 
-259.70 146.25 767.85 
-244.80 139.25 731.10 
-372.60 215.95 1133.90 
-372.35 217.95 1144.35 
-368.30 217.20 1140.40 
-361.70 215.30 1130.45 
-356.35 217.10 1140.05 
-351.10 215.80 1133.15 
-348.50 215.65 1132.40 
-343.75 214.55 1126.60 
-335.10 215.90 1133.75 
-331.60 215.35 1130.80 
-327.75 214.55 1126.75 
-323.05 213.40 1120.65 
-282.50 191.85 1007.65 
-282.35 215.65 1132.85 
-28.05 80.35 422.75 
-26.40 79.90 420.50 
-25.50 79.85 420.20 
-24.75 79.90 420.45 
-23.75 79.80 419.90 
-23.05 79.85 420.25 
-22.10 79.80 419.95 
-21.10 79.75 419.50 
-20.45 79.80 419.90 
-19.40 79.70 419.30 
-18.80 79.80 420.00 
-18.20 79.95 420.65 
-17.45 79.95 420.80 
-16.95 80.15 421.85 
-16.30 80.30 422.40 
-15.35 80.20 422.00 
-14.60 80.20 422.10 
-13.55 80.10 421.45 
-12.75 80.10 421.40 
-11.35 79.75 419.65 
-10.75 79.90 420.35 
-10.05 79.95 420.60 
-8.85 79.75 419.50 
-8.25 79.85 420.10 
-7.25 79.70 419.45 
-6.85 79.95 420.75 
-6.15 80.05 421.20 
-5.40 80.10 421.35 
-4.70 80.15 421.75 
-3.90 80.15 421.70 
-2.65 79.85 420.30 
-1.80 79.85 420.10 
-0.90 79.75 419.70 
-0.05 79.70 419.50 
0.70 79.70 419.50 
1.40 79.80 419.90 
2.25 79.80 419.80 
3.05 79.75 419.75 
3.95 79.70 419.35 
4.75 79.70 419.35 
5.70 79.60 418.75 
6.40 79.60 418.95 
7.20 79.65 419.05 
8.15 79.50 418.40 
8.70 79.70 419.40 
9.55 79.65 419.25 
10.35 79.65 419.20 
10.95 79.80 419.95 
11.75 79.80 419.85 
12.60 79.75 419.50 
13.15 79.90 420.35 
14.15 79.75 419.65 
14.95 79.70 419.45 
15.70 79.80 419.80 
16.65 79.60 418.95 
17.55 79.55 418.60 
18.25 79.60 418.85 
19.00 79.65 419.15 
19.85 79.60 418.85 
20.45 79.70 419.50 
21.30 79.70 419.35 
22.00 79.75 419.55 
22.70 79.80 419.90 
23.55 79.75 419.70 
24.40 79.70 419.30 
25.30 79.60 418.85 
26.10 79.55 418.70 
26.80 79.65 419.05 
27.70 79.50 418.35 
28.20 79.75 419.60 
28.95 79.80 419.75 
29.65 79.85 420.05 
30.45 79.85 420.05 
31.45 79.65 419.05 
32.15 79.70 419.40 
32.65 79.95 420.75 
33.25 80.10 421.45 
34.35 79.80 419.80 
35.20 79.70 419.45 
36.20 79.50 418.40 
37.05 79.40 417.85 
37.85 79.40 417.80 
38.50 79.55 418.50 
39.85 79.75 419.50 
40.55 79.80 419.70 
41.40 79.75 419.45 
42.25 79.60 418.75 
43.00 79.60 418.85 
43.95 79.45 417.85 
44.60 79.55 418.40 
45.30 79.60 418.80 
46.15 79.50 418.30 
46.95 79.50 418.10 
47.85 79.35 417.35 
48.50 79.45 418.05 
49.20 78.65 413.80 
51.25 79.80 419.85 
52.20 79.60 418.65 
52.95 79.60 418.75 
53.65 79.65 418.85 
54.50 79.55 418.35 
55.20 79.60 418.75 
55.95 79.55 418.55 
56.85 79.40 417.60 
57.55 79.50 418.15 
58.35 79.45 417.75 
59.05 79.55 418.40 
59.90 79.35 417.45 
60.65 79.40 417.50 
61.35 79.50 418.10 
62.15 79.40 417.70 
62.90 79.40 417.50 
63.55 79.55 418.35 
64.25 79.65 418.90 
65.00 79.60 418.65 
65.85 79.45 417.80 
66.60 79.45 417.85 
67.40 79.40 417.40 
68.15 79.45 417.75 
68.90 79.40 417.65 
69.65 79.40 417.55 
70.45 79.35 417.15 
71.80 79.60 418.45 
72.60 79.50 418.15 
73.30 79.55 418.30 
74.05 79.55 418.35 
74.85 79.45 417.75 
75.60 79.50 418.05 
76.30 79.55 418.25 
76.95 79.75 419.25 
77.80 79.55 418.40 
78.50 79.70 418.95 
79.25 79.70 418.90 
80.00 79.65 418.80 
80.70 79.80 419.50 
81.50 79.65 418.70 
82.15 79.85 419.90 
82.80 80.00 420.65 
84.65 80.90 425.40 
84.85 80.45 422.85 
85.70 80.25 421.90 
89.25 80.75 424.50 
90.05 80.70 424.10 
90.80 80.65 424.00 
91.55 80.70 424.10 
92.30 80.65 424.00 
93.10 80.55 423.35 
93.80 80.65 423.90 
94.60 80.60 423.65 
95.35 80.60 423.70 
96.10 80.55 423.40 
96.85 80.60 423.75 
97.60 80.65 423.85 
98.35 80.55 423.50 
99.15 80.50 423.15 
99.80 80.80 424.55 
100.55 80.85 425.00 
101.30 80.75 424.35 
102.10 80.70 424.05 
102.85 80.65 423.85 
103.60 80.60 423.55 
104.30 80.80 424.60 
105.05 80.95 425.50 
105.80 80.85 425.00 
106.60 80.75 424.45 
107.35 80.75 424.25 
108.10 80.75 424.30 
108.85 80.75 424.25 
109.60 80.70 424.00 
110.35 80.65 423.80 
111.80 80.95 425.30 
112.60 80.75 424.20 
113.35 80.60 423.45 
114.10 80.65 423.80 
114.85 80.70 424.00 
115.60 80.70 424.05 
116.35 80.55 423.15 
117.10 80.60 423.55 
117.85 80.65 423.80 
118.60 80.70 423.90 
119.35 80.75 424.20 
120.10 80.65 423.85 
120.85 80.60 423.55 
121.60 80.70 424.05 
122.35 80.75 424.25 
123.10 80.65 423.75 
123.85 80.75 424.30 
124.60 80.65 423.80 
125.30 80.60 423.55 
126.05 80.50 422.85 
126.80 80.75 424.25 
127.55 80.80 424.40 
128.35 80.70 423.90 
129.80 80.80 424.55 
130.55 80.70 423.90 
131.30 80.65 423.75 
132.05 80.70 423.90 
132.80 80.70 423.85 
133.55 80.60 423.35 
134.30 80.50 422.95 
135.05 80.60 423.30 
135.80 80.65 423.80 
136.55 80.60 423.35 
137.25 80.50 422.75 
138.05 80.60 423.35 
138.75 80.50 422.85 
139.50 80.45 422.75 
140.30 80.50 423.00 
141.00 80.40 422.45 
141.70 80.20 421.40 
142.30 79.70 418.60 
142.95 79.40 417.00 
143.65 79.30 416.55 
144.35 79.15 415.75 
145.10 79.15 415.80 
145.85 79.10 415.45 
146.60 79.00 415.05 
147.30 79.05 415.20 
148.00 78.90 414.55 
148.75 78.95 414.80 
149.50 79.00 414.90 
150.25 79.00 415.10 
151.00 78.95 414.85 
151.70 78.90 414.60 
152.45 78.95 414.85 
153.15 78.85 414.25 
153.85 78.80 413.95 
154.65 78.90 414.50 
155.40 78.95 414.70 
156.10 78.90 414.40 
156.90 78.95 414.90 
157.65 78.95 414.85 
158.35 78.90 414.60 
159.15 79.05 415.20 
159.95 79.15 415.70 
160.70 79.20 416.20 
161.50 79.30 416.60 
163.15 79.55 418.05 
-530.70 241.70 1260.55 
-526.60 241.20 1257.90 
-525.05 241.65 1260.30 
-522.10 241.60 1260.05 
-518.85 241.45 1259.20 
-516.95 241.80 1261.00 
-512.80 241.25 1258.10 
-510.80 241.60 1259.70 
-508.15 241.65 1260.00 
-503.80 241.00 1256.70 
-501.90 241.35 1258.50 
-499.00 241.30 1258.15 
-497.10 241.65 1259.95 
-493.60 241.35 1258.25 
-490.90 241.35 1258.35 
-487.10 240.95 1256.30 
-484.90 241.15 1257.25 
-483.00 241.45 1258.90 
-480.20 241.45 1258.75 
-476.60 241.10 1257.00 
-473.65 240.95 1256.30 
-470.95 241.00 1256.35 
-468.80 241.20 1257.55 
-465.55 241.00 1256.40 
-462.55 240.85 1255.55 
-461.10 241.35 1258.35 
-457.30 240.90 1255.95 
-454.00 240.65 1254.50 
-453.40 241.50 1259.00 
-449.50 240.95 1256.25 
-447.50 241.25 1257.70 
-443.75 240.80 1255.35 
-441.25 240.85 1255.65 
-439.15 241.10 1256.80 
-379.55 221.65 1155.50 
-370.95 218.85 1141.05 
-366.75 218.05 1136.80 
-360.95 219.70 1145.35 
-353.50 217.35 1133.20 
-350.70 217.15 1132.15 
-348.15 217.00 1131.50 
-338.10 217.75 1135.40 
-333.60 216.75 1130.05 
-330.20 216.20 1127.30 
-326.00 215.25 1122.40 
-322.30 214.55 1118.80 
-319.75 214.40 1118.10 
-318.30 215.95 1126.20 
-248.15 169.75 885.15 
-143.45 107.20 559.20 
-280.55 216.20 1127.80 
-28.25 81.05 423.35 
-26.55 80.60 420.95 
-25.55 80.45 420.30 
-24.65 80.45 420.15 
-23.75 80.40 420.00 
-23.10 80.50 420.45 
-22.10 80.40 420.05 
-21.30 80.40 420.05 
-20.20 80.25 419.25 
-19.60 80.35 419.85 
-18.95 80.45 420.40 
-18.20 80.50 420.65 
-17.40 80.50 420.65 
-16.90 80.70 421.60 
-16.20 80.75 422.00 
-15.30 80.75 421.75 
-14.30 80.60 421.20 
-13.35 80.55 420.70 
-12.55 80.55 420.80 
-11.50 80.40 420.00 
-10.65 80.40 420.05 
-9.90 80.40 420.15 
-9.05 80.40 420.20 
-8.20 80.40 420.00 
-7.35 80.35 419.85 
-6.70 80.45 420.30 
-6.10 80.60 421.05 
-5.40 80.65 421.45 
-4.70 80.70 421.75 
-3.90 80.70 421.70 
-2.55 80.35 419.90 
-1.80 80.40 419.95 
-0.85 80.30 419.55 
-0.05 80.30 419.60 
0.65 80.35 419.75 
1.45 80.35 419.85 
2.20 80.40 420.00 
3.10 80.30 419.45 
3.80 80.35 419.80 
4.75 80.25 419.35 
5.60 80.20 419.10 
6.40 80.20 419.00 
7.25 80.15 418.85 
8.10 80.15 418.65 
8.80 80.20 419.00 
9.50 80.25 419.35 
10.20 80.35 419.75 
11.00 80.35 419.70 
11.85 80.30 419.50 
12.65 80.25 419.35 
13.25 80.40 420.10 
14.15 80.30 419.60 
14.90 80.35 419.75 
15.80 80.25 419.30 
16.70 80.15 418.80 
17.60 80.10 418.50 
18.15 80.25 419.30 
19.00 80.25 419.15 
19.85 80.15 418.85 
20.45 80.30 419.50 
21.30 80.25 419.35 
22.10 80.25 419.15 
22.95 80.20 419.00 
23.65 80.25 419.15 
24.55 80.15 418.75 
25.25 80.20 419.00 
26.15 80.10 418.40 
26.85 80.15 418.85 
27.65 80.15 418.65 
28.35 80.20 419.05 
29.05 80.25 419.35 
29.75 80.35 419.80 
30.55 80.35 419.70 
31.25 80.40 420.05 
32.05 80.40 419.90 
32.75 80.45 420.25 
33.30 80.60 421.20 
34.20 80.55 420.75 
35.20 80.30 419.60 
36.20 80.10 418.40 
36.90 80.15 418.65 
37.80 80.05 418.10 
38.40 80.15 418.75 
39.10 80.25 419.25 
39.80 80.35 419.75 
40.45 80.50 420.40 
41.20 80.50 420.45 
42.20 80.25 419.20 
43.10 80.10 418.40 
43.85 80.10 418.35 
44.55 80.15 418.55 
45.40 80.10 418.25 
46.20 80.05 418.10 
46.90 80.10 418.30 
47.70 80.05 418.25 
48.50 80.00 417.85 
49.20 80.10 418.30 
49.95 80.05 418.20 
50.75 80.10 418.35 
51.40 80.20 418.95 
52.20 80.15 418.55 
52.95 80.15 418.50 
53.70 80.15 418.50 
54.45 80.15 418.60 
55.25 80.10 418.35 
55.95 80.20 418.75 
56.85 80.00 417.75 
57.60 79.95 417.65 
58.30 80.05 418.05 
58.20 79.20 413.60 
59.90 80.00 417.70 
60.65 80.00 417.75 
61.30 80.10 418.30 
62.10 80.05 418.05 
62.85 80.05 417.95 
63.50 80.25 418.95 
64.25 80.20 418.70 
64.95 80.25 419.00 
65.95 79.90 417.30 
66.65 79.95 417.55 
67.45 79.90 417.30 
68.10 80.05 417.95 
68.95 79.95 417.40 
69.65 79.95 417.45 
70.35 80.05 417.95 
71.05 80.20 418.75 
71.85 80.05 418.05 
72.60 80.10 418.15 
73.30 80.10 418.20 
74.10 80.05 417.85 
74.90 80.00 417.55 
75.60 80.05 417.85 
76.25 80.20 418.75 
76.95 80.30 419.20 
77.80 80.15 418.45 
78.50 80.25 419.00 
79.20 80.30 419.25 
79.95 80.25 419.00 
80.70 80.30 419.15 
81.45 80.35 419.50 
82.10 80.55 420.35 
82.80 80.55 420.60 
83.60 80.50 420.10 
84.90 80.95 422.45 
85.70 80.85 422.15 
86.40 81.00 422.75 
87.80 81.25 424.05 
89.25 81.35 424.70 
90.00 81.35 424.50 
90.80 81.25 424.15 
91.55 81.25 424.10 
92.30 81.25 423.95 
93.05 81.25 424.00 
93.85 81.15 423.60 
94.60 81.20 423.70 
95.30 81.25 424.00 
96.10 81.15 423.60 
96.80 81.25 424.05 
97.60 81.20 423.80 
98.35 81.15 423.50 
99.80 81.40 424.90 
100.55 81.35 424.50 
101.30 81.40 424.80 
102.10 81.15 423.50 
102.80 81.35 424.40 
103.55 81.30 424.35 
104.30 81.35 424.40 
105.05 81.50 425.25 
105.80 81.50 425.35 
106.60 81.40 424.60 
107.35 81.30 424.15 
108.10 81.30 424.20 
108.85 81.25 423.85 
109.60 81.25 423.95 
110.35 81.25 423.90 
111.10 81.25 424.05 
111.80 81.35 424.55 
112.60 81.25 423.95 
113.35 81.20 423.70 
114.10 81.20 423.80 
114.85 81.25 423.90 
115.60 81.25 423.90 
116.35 81.10 423.20 
117.10 81.15 423.45 
117.85 81.30 424.25 
118.60 81.35 424.35 
119.35 81.30 424.10 
120.10 81.30 424.15 
120.85 81.30 424.10 
121.60 81.30 424.00 
122.35 81.45 424.95 
123.10 81.20 423.70 
123.85 81.25 423.80 
124.55 81.10 423.10 
125.35 81.20 423.65 
126.05 81.05 422.90 
126.80 81.35 424.30 
127.55 81.35 424.30 
128.30 81.20 423.70 
129.10 81.40 424.75 
129.80 81.20 423.50 
130.55 81.25 423.75 
131.30 81.25 423.80 
132.05 81.20 423.70 
132.80 81.20 423.45 
133.55 81.20 423.65 
134.30 81.20 423.45 
135.10 81.30 424.15 
135.80 81.20 423.60 
136.55 81.05 422.80 
137.30 81.10 423.10 
138.05 81.10 422.90 
138.80 81.10 422.95 
139.50 81.05 422.65 
140.30 81.10 422.95 
141.00 81.10 422.90 
141.65 80.70 421.05 
142.35 80.40 419.50 
143.00 80.05 417.60 
143.70 80.00 417.15 
144.40 79.85 416.40 
145.10 79.75 416.00 
145.85 79.70 415.75 
146.60 79.55 415.05 
147.30 79.60 415.20 
148.05 79.55 414.95 
148.75 79.50 414.75 
149.50 79.50 414.60 
150.25 79.55 414.95 
150.95 79.45 414.55 
151.70 79.50 414.65 
152.45 79.50 414.70 
153.15 79.45 414.45 
155.45 79.65 415.45 
156.15 79.50 414.80 
156.90 79.55 415.10 
157.65 79.50 414.85 
158.30 79.40 414.15 
159.10 79.55 414.95 
159.90 79.65 415.50 
160.65 79.70 415.75 
161.45 79.80 416.30 
163.10 80.10 417.75 
-532.10 243.90 1263.20 
-527.05 243.10 1258.80 
-524.30 243.10 1258.90 
-522.05 243.30 1259.95 
-519.65 243.50 1260.80 
-516.95 243.55 1261.00 
-513.90 243.40 1260.25 
-510.00 243.00 1258.15 
-507.50 243.10 1258.70 
-503.75 242.70 1256.55 
-502.45 243.25 1259.55 
-500.20 243.50 1260.65 
-497.65 243.55 1261.05 
-494.20 243.30 1259.55 
-490.20 242.80 1257.00 
-487.10 242.65 1256.30 
-485.50 243.10 1258.50 
-482.50 242.95 1257.85 
-479.80 243.00 1257.95 
-476.25 242.65 1256.25 
-473.90 242.80 1256.85 
-471.95 243.10 1258.55 
-469.15 243.05 1258.35 
-465.40 242.60 1256.00 
-462.80 242.65 1256.20 
-461.50 243.25 1259.25 
-457.55 242.70 1256.45 
-455.30 242.90 1257.35 
-452.75 242.95 1257.55 
-448.60 242.30 1254.25 
-447.55 243.00 1257.85 
-444.15 242.70 1256.30 
-439.80 241.95 1252.40 
-438.95 242.70 1256.40 
-230.20 133.80 692.60 
-379.10 221.90 1148.85 
-376.00 221.65 1147.35 
-369.45 219.75 1137.65 
-363.55 218.15 1129.25 
-357.90 219.85 1138.15 
-352.40 218.40 1130.60 
-349.95 218.35 1130.40 
-345.80 217.45 1125.90 
-342.55 217.05 1123.70 
-342.05 217.90 1128.15 
-340.95 219.55 1136.80 
-335.70 218.15 1129.50 
-333.00 218.00 1128.60 
-328.60 216.95 1123.35 
-323.95 215.80 1117.30 
-324.60 217.20 1124.65 
-317.10 218.00 1128.90 
-290.25 218.15 1129.75 
-285.25 216.70 1122.25 
-282.50 216.40 1120.70 
-281.00 218.00 1129.00 
-276.45 216.75 1122.50 
-158.25 138.60 718.05 
-109.40 116.00 601.05 
-54.90 60.35 312.80 
-70.30 97.70 506.40 
-28.35 81.70 423.70 
-26.95 81.35 422.10 
-25.60 81.05 420.50 
-24.70 81.05 420.30 
-23.95 81.05 420.55 
-23.25 81.15 420.95 
-22.25 81.05 420.45 
-21.35 81.00 420.25 
-20.05 80.70 418.70 
-19.85 81.10 420.65 
-19.10 81.15 420.90 
-18.15 81.05 420.45 
-17.20 81.00 420.15 
-16.60 81.10 420.75 
-16.05 81.25 421.60 
-15.35 81.35 422.00 
-14.25 81.20 421.10 
-13.20 81.00 420.30 
-12.35 81.00 420.30 
-11.60 81.05 420.45 
-10.60 80.95 419.90 
-9.80 80.95 419.90 
-8.95 80.95 419.85 
-8.25 81.00 420.15 
-7.45 81.00 420.20 
-6.70 81.05 420.35 
-5.85 81.00 420.25 
-5.10 81.05 420.35 
-4.30 81.05 420.35 
-3.70 81.15 421.00 
-2.45 80.85 419.55 
-1.60 80.80 419.30 
-0.80 80.85 419.40 
0.05 80.75 418.95 
0.70 80.85 419.50 
1.55 80.85 419.45 
2.15 81.00 420.10 
3.15 80.85 419.45 
3.90 80.85 419.45 
4.65 80.90 419.60 
5.60 80.80 419.05 
6.40 80.80 419.05 
7.25 80.75 418.85 
8.00 80.75 419.00 
8.80 80.75 419.00 
9.55 80.80 419.15 
10.25 80.85 419.45 
10.95 80.90 419.80 
11.85 80.85 419.40 
12.80 80.75 418.80 
13.35 80.90 419.60 
14.20 80.85 419.55 
14.90 80.90 419.80 
15.70 80.90 419.65 
16.70 80.75 418.80 
17.50 80.75 418.90 
18.25 80.75 418.95 
19.05 80.75 418.85 
19.85 80.70 418.75 
20.55 80.80 419.05 
21.40 80.75 418.95 
22.00 80.90 419.60 
23.00 80.70 418.75 
23.70 80.75 418.95 
24.50 80.75 418.95 
25.25 80.75 418.90 
26.15 80.65 418.40 
26.80 80.80 419.05 
27.65 80.70 418.70 
28.40 80.70 418.70 
29.05 80.85 419.35 
29.65 81.00 420.25 
30.60 80.85 419.45 
31.25 80.95 419.95 
32.10 80.90 419.65 
32.85 80.90 419.75 
33.50 81.05 420.40 
34.20 81.10 420.70 
35.15 80.95 419.90 
36.05 80.80 419.05 
36.80 80.85 419.25 
37.70 80.70 418.55 
38.35 80.80 419.10 
39.05 80.90 419.65 
39.70 81.05 420.40 
40.40 81.10 420.65 
41.25 81.05 420.30 
42.20 80.85 419.25 
43.05 80.70 418.65 
43.80 80.70 418.55 
44.55 80.70 418.60 
45.40 80.65 418.25 
46.05 80.80 419.05 
46.85 80.75 418.75 
47.40 81.00 420.00 
48.40 80.75 418.70 
49.10 80.75 418.75 
50.05 80.55 417.85 
50.80 80.60 417.95 
51.45 80.70 418.40 
52.10 80.80 419.10 
53.00 80.65 418.25 
53.80 80.60 418.05 
54.45 80.70 418.60 
55.20 80.70 418.55 
55.95 80.75 418.80 
56.80 80.65 418.15 
57.60 80.60 417.95 
58.25 80.70 418.40 
59.00 80.70 418.50 
59.80 80.65 418.25 
60.60 80.60 417.95 
61.35 80.60 418.00 
62.10 80.65 418.20 
62.85 80.65 418.20 
63.50 80.75 418.75 
64.30 80.75 418.60 
65.00 80.75 418.75 
65.90 80.55 417.75 
66.65 80.50 417.45 
67.40 80.55 417.65 
68.10 80.60 417.95 
68.95 80.50 417.45 
69.60 80.60 417.95 
70.35 80.65 418.10 
71.10 80.65 418.05 
71.85 80.65 418.10 
72.50 80.80 418.85 
73.35 80.65 418.10 
74.10 80.60 417.70 
74.85 80.60 417.70 
75.65 80.55 417.50 
76.20 80.85 419.10 
76.95 80.90 419.50 
77.70 80.90 419.40 
78.50 80.80 418.90 
79.25 80.85 419.00 
78.85 80.10 415.20 
80.70 80.90 419.30 
81.45 80.90 419.40 
82.10 81.10 420.40 
82.85 81.10 420.35 
83.55 81.15 420.60 
84.30 81.25 421.00 
84.90 81.50 422.40 
85.65 81.50 422.35 
86.35 81.70 423.35 
87.80 81.85 424.15 
88.50 81.90 424.55 
89.25 82.00 425.05 
90.00 81.95 424.70 
90.80 81.90 424.35 
91.55 81.85 424.10 
92.35 81.80 423.90 
93.10 81.80 423.90 
93.80 81.85 424.15 
94.55 81.85 424.20 
95.35 81.75 423.60 
96.10 81.80 423.90 
96.85 81.80 423.95 
97.60 81.80 423.80 
98.35 81.70 423.45 
99.80 82.05 425.15 
100.55 82.00 424.80 
101.30 82.00 425.00 
102.10 81.85 424.10 
102.80 81.95 424.65 
103.55 81.95 424.55 
104.35 81.80 423.80 
105.80 82.05 425.15 
106.60 81.95 424.55 
107.35 81.85 424.05 
108.10 81.85 424.05 
108.85 81.80 423.75 
109.60 81.85 424.15 
110.35 81.85 424.15 
111.10 81.85 424.05 
111.80 81.95 424.60 
112.60 81.80 423.80 
113.35 81.90 424.20 
114.10 81.80 423.75 
114.85 81.80 423.75 
115.60 81.75 423.65 
116.35 81.75 423.50 
117.10 81.80 423.75 
117.85 81.85 424.10 
118.60 81.95 424.50 
119.35 81.90 424.20 
120.10 81.85 424.15 
120.85 81.95 424.60 
121.60 81.75 423.50 
122.35 82.00 424.75 
123.10 81.90 424.25 
123.85 81.75 423.55 
124.55 81.65 422.90 
125.35 81.80 423.70 
126.05 81.65 423.05 
126.80 81.80 423.70 
127.55 81.90 424.20 
128.35 81.90 424.15 
129.05 81.85 423.85 
129.85 82.00 424.70 
130.55 81.75 423.30 
131.30 81.80 423.80 
132.05 81.80 423.65 
132.80 81.75 423.35 
133.55 81.70 423.10 
134.30 81.75 423.55 
135.05 81.85 423.90 
135.80 81.75 423.40 
136.55 81.80 423.60 
137.30 81.65 423.00 
138.05 81.60 422.70 
138.80 81.65 422.95 
139.55 81.65 422.90 
140.25 81.60 422.75 
141.05 81.75 423.45 
141.70 81.40 421.70 
142.35 80.95 419.40 
143.05 80.75 418.35 
143.70 80.55 417.25 
144.45 80.55 417.10 
145.15 80.45 416.60 
145.85 80.30 416.00 
146.60 80.15 415.25 
147.35 80.20 415.50 
148.10 80.20 415.50 
148.80 80.15 415.10 
149.45 79.95 414.05 
150.25 80.10 414.80 
151.00 80.10 414.80 
151.70 80.05 414.65 
152.45 80.10 414.75 
153.15 79.95 414.25 
154.80 80.45 416.80 
156.30 80.45 416.70 
157.00 80.30 416.00 
157.70 80.25 415.60 
158.30 79.90 413.95 
159.10 80.05 414.65 
159.85 80.10 414.95 
160.60 80.10 414.90 
161.45 80.30 416.05 
162.25 80.45 416.70 
163.05 80.55 417.30 
-527.60 245.00 1259.90 
-524.15 244.75 1258.60 
-522.10 245.05 1260.05 
-519.40 245.10 1260.30 
-516.45 245.05 1260.00 
-513.35 244.90 1259.25 
-510.20 244.75 1258.55 
-507.70 244.85 1259.05 
-503.85 244.45 1256.85 
-502.75 245.10 1260.20 
-499.40 244.85 1259.00 
-497.45 245.20 1260.65 
-493.15 244.55 1257.35 
-490.95 244.80 1258.55 
-487.70 244.60 1257.55 
-486.10 245.05 1259.80 
-482.50 244.70 1257.90 
-479.80 244.70 1258.00 
-476.40 244.40 1256.55 
-474.15 244.60 1257.35 
-471.60 244.65 1257.70 
-467.95 244.25 1255.75 
-465.65 244.40 1256.50 
-463.05 244.45 1256.65 
-461.50 244.95 1259.20 
-458.25 244.75 1258.05 
-454.55 244.25 1255.75 
-452.60 244.60 1257.30 
-450.00 244.60 1257.40 
-446.20 244.10 1254.85 
-444.80 244.65 1257.75 
-441.15 244.20 1255.40 
-438.95 244.40 1256.45 
-382.15 224.85 1156.00 
-373.00 221.85 1140.35 
-368.60 220.90 1135.65 
-360.80 218.45 1122.90 
-366.05 224.10 1151.95 
-356.20 220.60 1134.10 
-352.40 219.90 1130.60 
-348.60 219.25 1127.10 
-345.40 222.10 1141.90 
-338.90 220.10 1131.65 
-335.65 219.65 1129.35 
-332.45 219.25 1127.15 
-326.85 217.65 1118.95 
-324.05 217.35 1117.55 
-323.60 218.20 1122.05 
-322.30 218.70 1124.60 
-317.30 218.55 1123.65 
-316.40 219.20 1127.10 
-310.55 219.70 1129.65 
-291.95 212.45 1092.40 
-294.00 218.10 1121.60 
-287.80 218.35 1123.05 
-284.20 217.65 1119.25 
-270.45 212.55 1093.25 
-148.40 130.50 671.45 
-63.45 72.20 371.65 
-154.05 240.15 1236.45 
-28.50 82.35 424.10 
-27.25 82.10 422.90 
-25.95 81.85 421.50 
-25.00 81.80 421.25 
-24.60 82.00 422.40 
-23.85 82.05 422.65 
-22.40 81.70 420.90 
-21.65 81.75 421.05 
-20.45 81.55 420.05 
-19.95 81.75 421.00 
-19.15 81.75 421.05 
-18.10 81.60 420.45 
-17.20 81.55 420.05 
-16.40 81.55 420.15 
-15.85 81.70 420.90 
-15.30 81.90 421.80 
-14.20 81.70 420.95 
-13.25 81.60 420.45 
-12.30 81.55 420.05 
-11.65 81.65 420.55 
-10.50 81.45 419.50 
-9.75 81.45 419.65 
-8.80 81.40 419.35 
-8.30 81.60 420.30 
-7.55 81.60 420.45 
-6.75 81.65 420.55 
-5.75 81.50 419.95 
-5.15 81.65 420.60 
-4.20 81.50 419.95 
-3.50 81.60 420.30 
-2.50 81.50 419.75 
-1.60 81.40 419.30 
-0.90 81.45 419.70 
0.15 81.25 418.65 
0.85 81.35 419.00 
1.60 81.35 419.20 
2.40 81.40 419.30 
3.00 81.50 419.85 
4.05 81.35 419.00 
4.60 81.50 419.80 
5.40 81.50 419.80 
6.35 81.35 419.20 
7.25 81.30 418.90 
8.00 81.35 419.15 
8.80 81.35 419.05 
9.50 81.40 419.45 
10.30 81.40 419.30 
10.95 81.50 419.90 
11.85 81.40 419.40 
12.80 81.30 418.75 
13.55 81.35 419.00 
14.10 81.50 419.80 
15.00 81.40 419.30 
15.70 81.50 419.75 
16.65 81.35 419.05 
17.50 81.30 418.85 
18.30 81.30 418.80 
19.10 81.30 418.75 
19.80 81.35 419.00 
20.55 81.35 419.05 
21.45 81.25 418.60 
22.05 81.45 419.50 
22.95 81.35 418.95 
23.65 81.40 419.25 
24.55 81.30 418.80 
25.30 81.30 418.70 
26.10 81.25 418.65 
26.85 81.30 418.90 
27.60 81.30 418.90 
28.45 81.25 418.65 
29.00 81.45 419.50 
29.60 81.60 420.40 
30.55 81.45 419.50 
31.40 81.40 419.25 
32.20 81.35 419.05 
33.00 81.35 418.95 
33.70 81.45 419.45 
34.45 81.45 419.40 
35.30 81.35 419.15 
35.90 81.50 419.75 
36.80 81.40 419.20 
37.65 81.30 418.85 
38.35 81.35 419.10 
38.95 81.55 420.05 
39.65 81.65 420.45 
40.50 81.55 420.00 
41.35 81.50 419.70 
42.15 81.40 419.30 
43.05 81.30 418.70 
43.75 81.35 418.85 
44.55 81.30 418.85 
45.35 81.30 418.65 
46.10 81.30 418.60 
47.35 81.60 420.25 
48.30 81.40 419.15 
49.20 81.25 418.40 
50.00 81.15 417.95 
50.80 81.15 417.80 
51.50 81.25 418.35 
52.20 81.30 418.70 
52.95 81.30 418.60 
53.85 81.10 417.65 
54.45 81.35 418.85 
55.25 81.25 418.35 
55.95 81.35 418.85 
56.80 81.20 418.15 
57.45 81.35 418.80 
58.20 81.30 418.75 
59.05 81.20 418.15 
59.80 81.25 418.35 
60.60 81.20 418.20 
61.35 81.20 418.10 
62.10 81.20 418.05 
62.80 81.30 418.55 
63.55 81.25 418.40 
64.25 81.30 418.70 
65.00 81.30 418.65 
65.85 81.20 418.10 
66.65 81.10 417.60 
67.40 81.15 417.65 
68.10 81.20 418.05 
68.95 81.05 417.15 
69.55 81.25 418.35 
70.40 81.15 417.80 
71.15 81.15 417.70 
71.85 81.25 418.25 
72.50 81.40 419.05 
73.30 81.25 418.15 
74.10 81.15 417.70 
74.90 81.15 417.60 
75.65 81.10 417.55 
76.20 81.45 419.30 
76.95 81.50 419.50 
77.70 81.50 419.45 
78.50 81.35 418.75 
79.20 81.45 419.15 
79.95 81.50 419.45 
80.70 81.45 419.35 
81.45 81.50 419.40 
82.15 81.55 419.70 
82.85 81.65 420.25 
83.60 81.65 420.20 
84.25 81.95 421.75 
84.90 82.10 422.70 
85.65 82.10 422.70 
86.35 82.25 423.30 
87.10 82.25 423.30 
87.80 82.40 424.00 
88.55 82.40 424.10 
89.25 82.60 425.10 
90.00 82.55 424.90 
90.75 82.50 424.60 
91.55 82.45 424.20 
92.35 82.35 423.70 
93.05 82.40 424.05 
93.80 82.45 424.20 
94.55 82.45 424.35 
95.35 82.25 423.35 
96.10 82.35 423.75 
96.85 82.40 424.00 
97.60 82.30 423.55 
98.40 82.25 423.30 
99.05 82.50 424.60 
99.80 82.55 424.80 
100.55 82.55 424.70 
101.30 82.55 424.75 
102.10 82.45 424.30 
102.85 82.35 423.85 
103.60 82.45 424.15 
104.35 82.40 423.85 
105.10 82.40 424.00 
105.80 82.55 424.85 
106.60 82.50 424.55 
107.35 82.35 423.80 
108.10 82.50 424.50 
108.85 82.35 423.75 
109.60 82.40 424.05 
110.35 82.40 423.95 
111.10 82.45 424.25 
111.85 82.45 424.30 
112.60 82.45 424.10 
113.35 82.35 423.80 
114.10 82.45 424.10 
114.85 82.40 423.80 
115.60 82.35 423.75 
116.35 82.30 423.45 
117.10 82.35 423.65 
117.85 82.50 424.40 
118.60 82.60 424.90 
119.35 82.40 423.90 
120.10 82.50 424.40 
120.85 82.50 424.30 
121.60 82.35 423.55 
122.35 82.40 423.85 
123.10 82.50 424.30 
123.85 82.30 423.30 
124.55 82.20 422.70 
125.30 82.20 422.95 
126.05 82.30 423.25 
126.85 82.50 424.25 
127.60 82.50 424.25 
128.35 82.35 423.65 
129.05 82.35 423.70 
129.80 82.45 424.15 
130.55 82.35 423.65 
131.30 82.35 423.55 
132.05 82.35 423.70 
132.80 82.30 423.30 
133.55 82.35 423.60 
134.35 82.40 423.85 
135.05 82.40 423.75 
135.80 82.40 423.80 
136.55 82.30 423.35 
137.30 82.30 423.30 
138.05 82.20 422.75 
138.75 82.20 422.75 
139.55 82.25 423.10 
140.25 82.15 422.50 
141.05 82.30 423.35 
141.70 82.05 421.95 
142.40 81.70 420.10 
143.05 81.35 418.50 
143.70 81.05 416.85 
144.45 81.10 417.10 
145.15 81.05 416.85 
145.85 80.85 415.90 
146.65 80.85 415.75 
147.35 80.80 415.70 
148.10 80.80 415.65 
148.80 80.80 415.55 
149.45 80.45 413.85 
150.25 80.65 414.75 
151.00 80.70 414.95 
151.70 80.65 414.70 
152.45 80.60 414.50 
153.15 80.55 414.35 
153.95 80.70 415.00 
154.80 80.95 416.40 
155.60 81.15 417.40 
156.40 81.20 417.65 
157.00 80.95 416.35 
157.70 80.80 415.55 
158.30 80.45 413.90 
159.05 80.55 414.25 
159.85 80.65 415.00 
161.45 80.85 415.95 
162.20 80.95 416.30 
163.05 81.15 417.35 
-527.85 246.80 1260.35 
-524.75 246.70 1259.75 
-522.30 246.85 1260.50 
-518.85 246.60 1259.20 
-517.05 247.00 1261.25 
-513.35 246.60 1259.30 
-510.90 246.75 1260.00 
-507.65 246.55 1259.00 
-504.90 246.55 1258.85 
-502.90 246.85 1260.50 
-498.70 246.30 1257.60 
-496.80 246.65 1259.35 
-493.20 246.30 1257.45 
-490.80 246.45 1258.20 
-488.50 246.65 1259.20 
-485.55 246.50 1258.60 
-482.80 246.50 1258.50 
-480.20 246.60 1258.85 
-475.40 245.75 1254.50 
-474.65 246.50 1258.50 
-471.95 246.55 1258.55 
-467.85 245.95 1255.60 
-465.10 245.90 1255.40 
-462.95 246.15 1256.50 
-461.80 246.80 1259.90 
-457.90 246.25 1257.25 
-454.35 245.90 1255.30 
-452.60 246.30 1257.30 
-450.35 246.45 1258.15 
-446.60 246.00 1255.80 
-445.00 246.45 1258.20 
-441.25 245.95 1255.60 
-437.55 245.50 1253.30 
-378.70 224.90 1148.00 
-372.10 223.00 1138.40 
-366.80 221.65 1131.45 
-360.45 223.05 1138.75 
-355.30 221.70 1132.00 
-351.80 221.15 1129.15 
-345.75 219.45 1120.35 
-345.10 221.30 1129.95 
-346.20 222.95 1138.25 
-341.90 222.00 1133.40 
-337.60 221.05 1128.55 
-334.55 220.65 1126.65 
-331.60 220.35 1125.15 
-326.00 220.95 1128.15 
-321.20 219.70 1121.85 
-317.75 221.40 1130.50 
-311.25 219.25 1119.65 
-309.80 220.85 1127.70 
-300.90 222.10 1134.25 
-295.50 220.45 1125.70 
-27.35 82.75 423.25 
-26.40 82.70 422.95 
-25.30 82.50 422.10 
-24.75 82.65 422.85 
-23.90 82.65 422.90 
-22.70 82.45 421.80 
-21.85 82.45 421.65 
-20.90 82.35 421.25 
-19.90 82.30 420.85 
-19.05 82.25 420.80 
-18.15 82.20 420.55 
-17.20 82.10 420.05 
-16.40 82.10 420.10 
-15.80 82.25 420.90 
-15.05 82.30 421.05 
-14.15 82.25 420.80 
-13.25 82.20 420.55 
-12.20 82.05 419.85 
-11.50 82.10 420.10 
-10.50 82.00 419.50 
-9.70 82.00 419.50 
-8.90 82.05 419.70 
-8.15 82.05 419.75 
-7.65 82.25 420.80 
-6.80 82.20 420.65 
-5.80 82.10 420.05 
-5.25 82.30 420.95 
-4.35 82.20 420.55 
-3.40 82.10 420.05 
-2.55 82.05 419.80 
-1.55 81.95 419.15 
-0.95 82.10 420.00 
0.15 81.85 418.75 
0.90 81.85 418.85 
1.60 81.95 419.20 
2.40 81.95 419.20 
3.00 82.05 419.85 
4.00 81.95 419.25 
4.55 82.10 420.00 
5.30 82.15 420.25 
6.20 82.05 419.75 
7.15 81.95 419.25 
7.95 81.95 419.30 
8.65 82.00 419.55 
9.20 82.20 420.50 
9.85 82.30 421.10 
10.95 82.05 419.80 
11.90 81.95 419.25 
12.85 81.85 418.65 
13.55 81.90 419.00 
14.15 82.05 419.70 
15.10 81.90 419.00 
15.75 82.00 419.60 
16.65 81.90 419.10 
17.40 81.95 419.35 
18.20 81.95 419.10 
19.00 81.95 419.20 
19.60 82.05 419.80 
20.55 81.95 419.20 
21.25 82.05 419.65 
22.00 82.05 419.70 
22.90 81.95 419.20 
23.55 82.05 419.60 
24.45 81.95 419.20 
25.25 81.90 418.95 
26.05 81.90 418.90 
26.85 81.90 418.85 
27.55 81.95 419.15 
28.25 82.00 419.45 
29.00 82.05 419.60 
29.65 82.15 420.20 
30.55 82.05 419.60 
31.35 82.00 419.50 
32.25 81.90 418.90 
33.05 81.85 418.70 
33.80 81.90 418.85 
34.55 81.90 419.00 
35.35 81.90 418.90 
35.90 82.05 419.80 
36.70 82.05 419.65 
37.55 82.00 419.40 
38.40 81.90 418.85 
38.95 82.10 420.05 
39.75 82.15 420.10 
40.65 82.00 419.35 
41.50 81.90 418.90 
42.25 81.90 418.95 
42.95 81.95 419.10 
43.80 81.85 418.70 
44.60 81.80 418.40 
45.40 81.80 418.45 
46.30 81.65 417.60 
46.95 81.75 418.00 
47.60 81.90 418.85 
48.45 81.80 418.35 
49.20 81.80 418.30 
49.95 81.80 418.25 
50.80 81.70 417.90 
51.50 81.75 418.15 
52.15 81.95 419.00 
52.95 81.90 418.75 
53.75 81.80 418.40 
54.50 81.85 418.50 
55.25 81.80 418.25 
56.00 81.80 418.40 
56.75 81.85 418.50 
57.50 81.85 418.50 
58.20 81.95 418.95 
58.95 81.95 419.05 
59.85 81.75 418.00 
60.55 81.85 418.50 
61.35 81.75 418.10 
62.10 81.75 418.10 
62.80 81.85 418.40 
63.55 81.85 418.50 
64.30 81.85 418.45 
64.95 82.00 419.35 
65.90 81.70 417.80 
66.60 81.70 417.85 
67.40 81.70 417.70 
68.10 81.80 418.10 
68.90 81.65 417.55 
69.60 81.80 418.20 
70.35 81.75 418.05 
71.05 81.85 418.40 
71.80 81.90 418.70 
72.55 81.85 418.35 
73.30 81.85 418.50 
74.05 81.85 418.40 
74.85 81.80 418.05 
75.60 81.80 418.05 
76.20 82.00 419.15 
76.95 82.05 419.55 
77.75 81.95 418.95 
78.50 81.90 418.75 
79.25 82.00 419.10 
79.95 82.05 419.35 
80.75 81.95 418.90 
81.45 82.05 419.40 
82.20 82.05 419.35 
82.85 82.20 420.15 
84.20 82.60 422.20 
84.90 82.75 422.85 
85.65 82.65 422.45 
86.35 82.85 423.40 
87.05 82.90 423.65 
87.85 82.90 423.65 
88.55 82.95 424.05 
89.25 83.15 425.00 
90.05 83.05 424.50 
90.75 83.15 425.00 
91.55 83.00 424.25 
92.30 83.00 424.15 
93.10 82.95 423.80 
93.80 83.00 424.05 
94.55 83.00 424.25 
95.30 83.05 424.35 
96.05 83.00 424.15 
96.85 83.00 424.05 
97.60 82.85 423.35 
98.35 82.95 423.75 
99.05 83.15 424.85 
99.85 83.05 424.40 
100.60 83.05 424.40 
101.30 83.10 424.70 
102.10 83.00 424.05 
102.85 82.95 423.95 
103.60 82.95 423.90 
104.35 82.90 423.65 
105.10 83.10 424.65 
105.85 83.05 424.25 
106.55 83.20 425.15 
107.35 82.95 423.75 
108.10 83.10 424.65 
108.85 83.05 424.30 
109.60 82.95 423.85 
110.35 83.05 424.20 
111.10 83.15 424.80 
111.85 83.05 424.35 
112.60 83.00 424.05 
113.35 83.15 424.90 
114.10 83.00 424.00 
114.85 82.90 423.55 
115.60 83.00 423.90 
116.35 82.90 423.60 
117.10 82.95 423.80 
117.85 83.10 424.60 
118.60 83.25 425.20 
119.35 82.95 423.85 
120.10 83.05 424.35 
120.85 83.00 423.90 
121.60 82.90 423.45 
122.35 82.95 423.80 
123.10 82.95 423.65 
123.85 82.80 422.85 
124.60 82.80 422.95 
125.35 82.90 423.40 
126.05 82.90 423.55 
126.85 83.05 424.20 
127.55 82.95 423.75 
128.35 83.00 423.90 
129.05 82.90 423.50 
129.80 83.00 423.90 
130.60 83.00 424.00 
131.30 82.95 423.80 
132.05 82.90 423.40 
132.80 82.90 423.55 
133.55 82.95 423.70 
134.35 83.00 424.05 
135.05 82.95 423.60 
135.80 82.90 423.45 
136.55 82.85 423.30 
137.30 82.95 423.70 
138.05 82.75 422.70 
138.75 82.75 422.75 
139.55 82.80 423.00 
140.25 82.65 422.15 
141.05 82.85 423.25 
141.75 82.70 422.45 
142.40 82.30 420.45 
143.05 81.95 418.55 
143.75 81.85 417.95 
144.40 81.55 416.55 
145.15 81.65 417.00 
145.90 81.50 416.20 
146.65 81.40 415.75 
147.35 81.45 415.90 
148.10 81.40 415.75 
148.80 81.35 415.50 
149.45 81.10 414.15 
150.25 81.30 415.15 
150.95 81.15 414.55 
151.70 81.20 414.65 
152.40 81.15 414.40 
153.15 81.15 414.50 
153.95 81.30 415.15 
154.80 81.55 416.65 
155.65 81.75 417.50 
156.40 81.70 417.40 
157.10 81.65 417.10 
157.70 81.30 415.40 
158.30 81.10 414.20 
159.05 81.10 414.25 
159.90 81.30 415.40 
160.55 81.20 414.80 
161.35 81.30 415.30 
163.00 81.60 416.75 
-527.05 248.20 1258.80 
-525.05 248.50 1260.35 
-521.75 248.35 1259.45 
-518.55 248.20 1258.60 
-517.00 248.65 1261.05 
-512.60 248.00 1257.70 
-511.15 248.55 1260.50 
-507.70 248.30 1259.10 
-505.95 248.70 1261.05 
-501.35 247.95 1257.40 
-499.40 248.30 1259.05 
