ply
format ascii 1.0
element vertex 2236
property float x
property float y
property float z
end_header
145.50 -74.40 407.15 
-46.75 -74.70 412.40 
-46.25 -74.85 413.15 
-45.20 -75.15 414.85 
-25.75 -74.55 411.65 
-24.15 -74.60 411.80 
-22.60 -74.60 412.00 
12.35 -74.05 408.85 
14.35 -73.70 407.00 
19.95 -73.50 405.80 
22.65 -73.75 407.40 
24.30 -73.65 406.80 
37.10 -73.70 406.80 
38.35 -73.90 408.05 
68.55 -75.30 415.45 
74.45 -74.10 408.75 
76.95 -74.90 413.15 
81.35 -74.90 413.40 
133.20 -120.10 662.40 
89.40 -75.05 414.05 
90.95 -74.80 412.75 
98.95 -75.10 414.25 
144.70 -73.70 406.25 
-46.75 -74.15 412.40 
-46.30 -74.30 413.30 
-45.00 -74.50 414.30 
-22.60 -74.05 412.05 
-15.75 -73.40 408.50 
21.90 -73.20 407.25 
22.90 -72.45 403.05 
24.60 -72.90 405.50 
37.10 -73.15 406.85 
74.70 -74.35 413.45 
75.45 -74.35 413.45 
76.05 -74.55 414.45 
76.90 -74.40 413.65 
80.55 -74.50 414.10 
89.40 -74.50 414.10 
90.95 -74.35 413.30 
93.20 -74.15 412.20 
98.95 -74.55 414.30 
133.95 -73.50 408.20 
144.70 -73.15 406.30 
-46.35 -73.80 413.50 
-44.85 -74.25 416.05 
-30.90 -62.65 351.30 
-22.60 -73.50 412.05 
-16.85 -73.45 411.70 
-11.50 -72.70 407.55 
12.95 -73.55 412.40 
22.70 -72.60 407.05 
24.40 -72.50 406.40 
37.55 -73.50 412.00 
49.00 -72.60 406.90 
49.00 -71.85 402.60 
71.80 -73.70 412.95 
74.65 -73.90 414.05 
75.35 -74.00 414.45 
76.25 -73.65 412.65 
76.85 -73.85 413.75 
80.35 -74.30 416.30 
92.40 -73.80 413.30 
93.80 -74.00 414.25 
133.95 -72.95 408.20 
-46.35 -73.20 413.50 
-44.65 -73.60 415.60 
-22.45 -72.45 409.25 
-19.95 -72.85 411.45 
-16.25 -72.55 409.95 
-15.50 -72.60 410.20 
-13.10 -72.60 410.20 
-11.50 -72.15 407.55 
13.80 -71.90 406.20 
19.95 -71.85 405.85 
23.05 -71.80 405.65 
24.50 -71.85 405.90 
22.30 -63.80 360.35 
39.80 -72.25 408.20 
46.85 -71.95 406.35 
47.80 -71.05 401.15 
49.00 -72.05 406.90 
49.10 -71.20 402.05 
39.60 -54.75 309.25 
55.70 -72.00 406.60 
71.60 -73.45 414.75 
74.65 -73.35 414.05 
75.35 -73.45 414.50 
76.25 -73.15 412.95 
76.85 -73.40 414.20 
74.05 -60.40 340.85 
92.40 -73.25 413.30 
93.10 -73.35 414.05 
-44.60 -73.00 415.50 
-23.10 -72.20 411.05 
-19.95 -72.25 411.45 
-15.65 -71.70 408.15 
-13.10 -72.05 410.20 
9.70 -71.50 407.20 
19.00 -71.45 406.80 
19.60 -70.45 401.15 
20.30 -71.60 407.60 
21.50 -71.25 405.80 
21.75 -71.65 407.90 
22.90 -70.80 403.10 
24.60 -71.25 405.55 
25.15 -71.40 406.40 
39.80 -71.70 408.25 
49.30 -71.20 405.15 
71.40 -73.25 416.60 
74.45 -73.10 415.90 
75.45 -72.65 413.30 
76.20 -72.60 413.05 
76.90 -72.70 413.55 
77.75 -72.50 412.45 
77.35 -71.90 409.05 
79.20 -72.60 413.05 
90.10 -72.95 414.80 
92.40 -72.70 413.35 
93.90 -72.60 412.90 
103.25 -73.30 416.75 
103.50 -72.35 411.25 
-45.15 -72.65 416.80 
-30.90 -87.95 504.50 
-23.65 -71.55 410.40 
-23.10 -71.65 411.05 
9.70 -70.95 407.20 
18.30 -70.30 403.40 
19.55 -69.95 401.50 
20.25 -71.10 407.90 
21.35 -70.85 406.45 
21.85 -71.00 407.50 
25.15 -70.85 406.40 
57.55 -71.30 408.85 
61.25 -71.35 409.10 
62.75 -71.30 408.75 
71.60 -72.35 414.80 
74.45 -72.55 415.95 
75.40 -72.25 414.05 
76.30 -71.90 412.20 
76.85 -72.20 414.05 
76.70 -71.30 408.70 
83.55 -72.20 413.75 
89.30 -72.60 415.95 
92.40 -72.15 413.35 
71.40 -49.55 283.80 
-25.75 -71.20 411.70 
-23.65 -71.00 410.45 
-20.55 -71.45 413.30 
6.10 -70.75 409.05 
10.15 -70.10 405.45 
11.60 -70.20 405.85 
13.10 -70.20 405.95 
18.55 -70.65 408.60 
19.85 -70.30 406.45 
20.55 -70.35 406.70 
21.10 -70.50 407.55 
20.70 -66.15 382.45 
24.45 -69.70 403.05 
42.90 -70.55 407.85 
60.60 -70.65 408.35 
62.05 -70.70 408.65 
71.40 -72.10 416.65 
72.35 -71.80 414.80 
74.45 -72.00 415.95 
75.10 -72.10 416.70 
76.25 -71.40 412.55 
76.85 -71.70 414.10 
76.65 -70.75 408.75 
83.55 -71.60 413.75 
89.40 -71.70 414.15 
71.40 -49.15 283.80 
136.05 -70.50 406.80 
139.60 -70.20 405.00 
148.40 -70.45 406.50 
-25.10 -70.35 409.90 
-23.90 -70.55 411.15 
-20.55 -70.90 413.30 
10.15 -69.55 405.45 
11.50 -69.70 406.30 
12.00 -68.90 401.60 
19.55 -69.95 407.65 
34.25 -69.70 406.10 
34.95 -69.70 406.30 
35.70 -69.75 406.45 
36.85 -69.40 404.35 
42.90 -70.00 407.85 
46.10 -69.75 406.50 
46.55 -70.05 408.15 
61.35 -71.00 413.45 
71.60 -71.25 414.80 
72.25 -71.35 415.55 
74.45 -71.40 415.95 
74.15 -70.65 411.55 
76.25 -70.90 413.00 
148.40 -69.90 406.50 
-15.15 -69.65 409.20 
16.90 -69.10 406.05 
18.05 -69.35 407.55 
19.30 -69.05 405.65 
20.55 -69.25 406.75 
34.30 -69.10 406.00 
35.55 -69.30 407.05 
71.60 -70.65 414.85 
75.30 -70.70 414.90 
76.95 -70.40 413.30 
90.55 -71.45 419.30 
93.20 -70.25 412.25 
148.40 -69.35 406.55 
-16.25 -69.25 410.00 
-14.35 -69.05 409.05 
16.90 -68.55 406.10 
18.05 -68.80 407.50 
30.55 -66.85 395.85 
27.35 -58.95 349.00 
32.70 -68.65 406.40 
33.45 -68.65 406.50 
34.35 -68.50 405.75 
35.10 -68.50 405.60 
29.85 -56.90 337.10 
36.05 -67.75 401.10 
71.60 -70.10 414.85 
75.30 -70.10 414.90 
76.95 -69.85 413.30 
88.45 -70.50 417.10 
90.55 -70.90 419.30 
96.10 -69.90 413.35 
138.90 -68.70 406.10 
148.40 -68.80 406.55 
-37.75 -69.95 417.50 
-32.25 -98.50 587.85 
-16.25 -68.65 410.00 
9.20 -68.50 409.00 
14.00 -68.90 411.50 
15.35 -68.05 406.20 
16.45 -68.30 407.85 
18.15 -68.20 407.05 
31.30 -68.00 405.85 
31.90 -68.15 406.70 
32.70 -68.05 406.35 
33.50 -68.05 406.15 
34.35 -68.00 405.85 
34.95 -68.05 406.30 
35.90 -67.90 405.35 
71.40 -69.85 416.70 
75.30 -69.55 414.95 
78.55 -69.15 412.40 
80.05 -69.10 412.00 
88.45 -69.95 417.10 
96.00 -69.65 415.15 
97.55 -69.40 413.90 
98.30 -69.40 413.70 
-46.70 -69.25 416.50 
-45.15 -68.60 412.65 
-44.50 -68.65 413.15 
-26.85 -68.55 412.55 
9.60 -70.70 425.55 
31.30 -67.45 405.90 
31.90 -67.60 406.70 
32.75 -67.50 406.15 
33.50 -67.50 406.35 
34.30 -67.50 406.10 
35.00 -67.50 406.10 
35.90 -67.35 405.35 
40.10 -67.65 407.00 
75.30 -69.00 414.95 
95.40 -68.65 412.65 
96.30 -68.15 409.75 
99.00 -68.85 413.70 
99.75 -68.75 413.30 
104.85 -69.00 414.65 
142.45 -67.30 404.30 
-76.80 -112.95 685.05 
-44.70 -68.20 413.60 
-26.85 -68.00 412.55 
30.95 -67.20 407.65 
31.90 -67.00 406.70 
32.60 -67.05 406.90 
33.55 -66.90 405.95 
34.15 -67.05 406.75 
38.05 -66.90 405.95 
39.40 -67.00 406.65 
39.95 -67.20 407.75 
34.50 -53.45 324.30 
68.75 -68.25 413.75 
70.40 -68.00 412.50 
84.20 -68.40 414.55 
98.25 -68.35 414.15 
98.90 -68.60 415.65 
99.75 -68.20 413.30 
112.90 -68.50 415.10 
139.95 -70.70 428.25 
133.05 -66.45 402.45 
142.45 -66.75 404.30 
143.85 -66.70 403.95 
-46.35 -67.60 413.60 
-44.65 -67.60 413.45 
-26.85 -67.45 412.60 
-25.30 -67.10 410.60 
-24.65 -67.15 410.95 
-18.90 -67.10 410.70 
-15.15 -66.90 409.25 
-13.60 -66.90 409.30 
30.95 -66.65 407.65 
31.90 -66.45 406.70 
32.60 -66.50 406.90 
33.80 -66.15 404.80 
38.05 -66.35 405.95 
39.50 -66.40 406.25 
98.30 -67.65 413.50 
99.75 -67.65 413.30 
140.65 -69.95 427.10 
133.75 -65.85 401.95 
151.25 -66.50 405.90 
152.75 -66.55 406.40 
-47.00 -68.00 419.50 
-44.45 -66.95 413.00 
-42.25 -66.40 409.60 
-40.40 -66.30 409.10 
-26.85 -66.85 412.60 
-25.65 -66.70 411.60 
-14.60 -66.05 407.45 
-13.30 -66.20 408.45 
28.45 -66.25 408.80 
29.60 -65.40 403.55 
32.10 -66.35 409.30 
28.70 -57.00 351.55 
40.15 -65.90 406.60 
72.70 -67.85 418.20 
73.15 -67.15 414.15 
87.10 -67.45 415.70 
98.20 -67.35 415.10 
136.15 -66.35 408.65 
152.30 -66.60 410.10 
151.95 -65.90 405.70 
152.80 -66.10 406.85 
-44.10 -66.25 412.10 
-42.25 -65.85 409.60 
-41.85 -66.05 410.70 
-26.20 -66.05 410.80 
-25.75 -66.20 411.80 
-13.30 -66.85 415.85 
40.20 -65.30 406.30 
71.60 -66.75 414.95 
71.40 -66.05 410.55 
90.10 -66.75 414.95 
98.25 -66.80 414.90 
-74.20 -114.60 718.90 
40.15 -64.80 406.60 
40.95 -64.15 402.55 
71.70 -66.05 414.15 
72.35 -66.20 415.00 
73.20 -65.95 413.60 
75.30 -66.20 415.00 
90.10 -66.20 414.95 
98.25 -66.20 414.85 
115.85 -66.15 414.35 
-47.00 -66.30 419.50 
-38.80 -65.00 411.40 
40.15 -64.25 406.60 
41.05 -63.55 402.00 
71.70 -65.45 414.05 
72.25 -65.75 415.70 
73.15 -65.50 414.35 
74.85 -65.20 412.45 
90.10 -65.65 414.95 
96.10 -65.40 413.45 
115.85 -65.60 414.35 
117.30 -65.50 413.90 
116.65 -64.85 409.60 
131.05 -64.50 407.45 
132.50 -64.35 406.55 
-46.25 -65.45 417.65 
-44.10 -64.60 412.15 
-38.80 -64.45 411.40 
-37.25 -64.50 411.75 
-55.05 -109.15 696.45 
72.45 -64.90 413.85 
74.05 -64.75 412.95 
74.85 -64.65 412.45 
89.75 -67.60 430.95 
110.00 -65.00 414.20 
110.70 -65.10 414.90 
111.45 -64.90 413.70 
136.15 -64.15 408.70 
-45.65 -63.95 411.80 
-44.25 -64.10 412.60 
-31.70 -63.35 408.00 
-0.10 -63.10 406.40 
31.90 -63.15 406.80 
35.00 -63.10 406.40 
40.15 -63.15 406.65 
52.05 -63.15 406.65 
78.20 -64.70 416.15 
79.85 -64.35 413.95 
90.00 -64.80 416.80 
92.45 -64.30 413.50 
98.10 -64.90 417.50 
101.00 -65.10 418.50 
109.95 -64.70 416.05 
110.75 -64.50 414.75 
111.45 -64.35 413.75 
124.60 -63.80 410.10 
131.10 -63.40 407.45 
136.15 -63.60 408.70 
-45.65 -63.40 411.80 
-44.35 -63.55 412.80 
-32.35 -63.10 409.80 
-27.00 -53.45 347.35 
-30.85 -63.10 410.05 
-0.10 -63.40 411.80 
31.90 -62.60 406.80 
35.00 -62.55 406.45 
46.90 -62.60 406.55 
48.30 -62.65 406.90 
52.05 -62.60 406.65 
53.55 -62.60 406.50 
53.55 -61.95 402.20 
78.20 -64.10 416.15 
80.35 -64.20 416.65 
90.00 -64.25 416.85 
92.45 -63.75 413.55 
98.10 -64.35 417.50 
109.95 -64.15 416.05 
110.75 -63.80 413.90 
111.45 -64.05 415.25 
70.15 -39.80 258.00 
124.60 -63.25 410.10 
131.15 -63.15 409.25 
131.85 -63.20 409.85 
133.30 -63.15 409.55 
133.25 -62.90 407.75 
-46.30 -63.75 417.70 
-44.50 -63.05 413.15 
-32.35 -62.55 409.80 
-31.00 -62.65 410.50 
-6.85 -62.65 410.80 
51.75 -62.35 408.45 
53.55 -62.05 406.50 
74.65 -63.25 414.30 
78.20 -63.55 416.20 
80.30 -63.70 417.20 
96.00 -63.45 415.30 
110.75 -63.40 414.90 
70.15 -39.45 258.00 
130.35 -62.20 406.75 
131.75 -62.15 406.35 
133.30 -62.60 409.55 
133.10 -61.55 402.55 
-46.30 -63.20 417.70 
-44.55 -62.50 413.30 
-32.35 -62.00 409.80 
-31.55 -61.95 409.75 
-30.95 -62.05 410.35 
-29.75 -61.90 409.30 
-25.10 -62.00 410.05 
-23.55 -62.05 410.25 
-22.45 -61.90 409.45 
75.35 -62.80 415.10 
80.35 -63.05 416.60 
96.00 -62.90 415.30 
133.25 -61.80 407.80 
133.95 -61.75 407.55 
133.10 -61.00 402.55 
133.75 -60.85 401.45 
-46.30 -62.60 417.70 
-44.65 -62.00 413.55 
-35.45 -61.35 409.30 
-22.45 -61.35 409.45 
-21.20 -62.25 415.25 
-20.15 -60.70 405.10 
49.00 -61.05 407.15 
49.60 -61.15 407.90 
75.35 -62.25 415.10 
80.40 -62.50 416.60 
110.00 -62.20 414.25 
144.25 -81.15 540.50 
111.50 -62.10 413.80 
110.85 -61.60 410.40 
-46.30 -62.05 417.70 
-44.60 -61.45 413.55 
-31.95 -61.00 410.85 
-30.40 -61.05 411.10 
-22.15 -60.65 408.55 
-21.05 -60.90 410.00 
-8.95 -60.85 409.75 
6.60 -60.50 407.45 
48.70 -60.75 408.95 
49.40 -60.75 409.10 
80.20 -62.20 418.45 
110.00 -61.65 414.25 
111.50 -61.50 413.55 
130.40 -60.80 408.55 
-46.30 -61.50 417.70 
-44.55 -60.85 413.40 
-31.70 -60.05 408.05 
-30.65 -60.30 409.65 
-30.15 -60.40 410.50 
-29.20 -60.35 410.05 
-28.85 -60.55 411.40 
-24.45 -60.10 408.30 
-23.40 -60.30 409.80 
28.85 -59.90 407.15 
48.80 -60.10 408.35 
49.70 -59.95 407.40 
80.20 -61.65 418.45 
107.05 -61.25 415.55 
-46.30 -60.90 417.70 
-44.65 -60.30 413.55 
-29.30 -59.85 410.35 
-28.85 -60.00 411.40 
-27.10 -59.60 408.85 
-22.15 -58.90 404.00 
-20.90 -59.75 409.65 
-20.30 -59.80 410.30 
34.60 -59.55 408.25 
30.70 -50.50 346.45 
36.75 -59.60 408.90 
49.00 -59.40 407.20 
49.65 -59.50 407.95 
50.55 -59.35 406.90 
86.05 -67.30 461.10 
80.40 -60.80 416.65 
57.50 -33.55 229.80 
107.05 -60.60 415.10 
-46.30 -60.35 417.75 
-44.65 -59.75 413.65 
-29.30 -59.30 410.40 
-27.25 -59.10 409.30 
-22.75 -59.25 410.35 
-22.60 -59.55 412.25 
-21.20 -59.30 410.60 
-19.95 -59.45 411.65 
-9.45 -59.05 408.85 
36.95 -58.90 407.80 
37.85 -58.80 407.05 
38.55 -58.85 407.30 
89.30 -60.20 416.25 
104.10 -60.15 415.90 
113.65 -60.20 416.00 
121.75 -60.25 416.50 
122.50 -59.90 413.85 
-44.75 -59.25 413.90 
-28.95 -58.60 409.50 
-28.85 -58.85 411.45 
-27.85 -58.80 410.95 
-25.10 -58.70 410.10 
-25.60 -63.10 441.10 
-22.65 -58.65 410.10 
-25.35 -66.15 462.20 
-20.90 -58.60 409.70 
-20.60 -59.15 413.50 
-9.45 -58.50 408.85 
-7.85 -58.10 406.25 
25.35 -58.55 409.20 
36.95 -58.35 407.85 
37.80 -58.25 407.20 
38.55 -58.30 407.45 
39.60 -58.10 405.95 
89.30 -59.65 416.25 
101.20 -59.45 414.90 
102.60 -59.60 415.85 
113.65 -59.65 416.00 
121.75 -59.45 414.65 
133.95 -58.30 406.75 
-46.30 -59.25 417.75 
-44.70 -58.65 413.80 
-29.20 -58.10 410.10 
-28.85 -58.30 411.45 
-27.30 -58.05 409.50 
-25.10 -58.15 410.15 
-23.75 -58.25 410.90 
-13.70 -58.40 412.25 
-9.45 -57.95 408.90 
16.00 -58.10 409.85 
19.00 -57.70 407.05 
20.55 -57.65 406.95 
34.60 -57.85 408.30 
35.55 -57.25 403.90 
36.85 -57.85 408.30 
37.80 -57.70 407.25 
38.55 -57.75 407.50 
39.60 -57.55 406.00 
52.70 -57.80 407.50 
89.30 -59.05 416.25 
98.90 -59.10 416.45 
101.05 -59.40 418.65 
101.90 -59.00 415.50 
102.65 -58.85 414.70 
103.35 -59.10 416.25 
-29.30 -57.60 410.40 
-28.85 -57.75 411.45 
-25.10 -57.55 410.15 
-23.15 -57.45 409.10 
-26.70 -67.60 481.45 
-20.60 -58.05 413.50 
-13.70 -57.85 412.25 
9.75 -57.55 410.15 
15.90 -57.15 407.20 
17.35 -57.20 407.50 
19.10 -57.50 409.65 
25.75 -57.20 407.45 
34.60 -57.30 408.30 
35.70 -56.60 403.05 
36.95 -57.25 407.90 
37.90 -57.15 406.95 
38.45 -57.25 407.85 
39.60 -57.00 406.00 
52.70 -57.25 407.55 
74.65 -58.20 414.40 
76.15 -58.25 414.60 
75.85 -57.65 410.20 
89.35 -58.50 416.30 
95.90 -58.65 417.25 
98.95 -58.55 416.50 
101.10 -58.70 417.70 
102.55 -58.65 417.25 
104.80 -58.60 416.70 
-29.95 -57.30 412.20 
-28.45 -57.05 410.40 
-26.20 -57.15 410.95 
-25.75 -57.25 411.95 
-24.30 -57.05 410.20 
-23.55 -57.05 410.30 
-26.80 -66.95 481.70 
-20.60 -57.50 413.50 
0.90 -56.75 408.35 
15.45 -56.85 409.00 
16.00 -56.95 409.85 
17.20 -56.70 408.10 
18.00 -56.70 408.00 
24.75 -56.80 408.45 
26.30 -56.75 408.30 
34.05 -56.65 407.55 
35.40 -56.75 408.20 
36.95 -56.70 407.90 
37.80 -56.65 407.45 
38.35 -56.80 408.55 
39.25 -56.70 407.75 
52.70 -56.65 407.55 
75.15 -58.00 417.05 
76.80 -57.75 415.10 
95.90 -58.10 417.25 
101.10 -58.05 416.80 
102.65 -57.90 415.75 
104.15 -57.70 414.50 
104.85 -57.95 416.10 
105.60 -57.85 415.55 
110.05 -57.70 414.35 
116.65 -57.55 413.40 
-44.20 -57.10 414.65 
-29.95 -56.75 412.20 
-28.45 -56.50 410.45 
-26.20 -56.55 410.95 
-25.75 -56.70 411.95 
-24.10 -56.40 409.65 
-23.55 -56.50 410.30 
15.00 -56.55 410.80 
16.10 -56.35 409.45 
17.15 -56.20 408.35 
18.00 -56.15 408.00 
24.75 -56.20 408.45 
34.05 -56.10 407.55 
35.55 -56.10 407.35 
35.70 -55.50 403.10 
36.90 -56.20 408.25 
38.20 -56.35 409.25 
39.15 -56.20 408.15 
104.15 -57.20 415.05 
104.80 -57.45 416.70 
105.60 -57.30 415.55 
110.00 -57.40 416.20 
110.70 -57.45 416.55 
111.50 -57.10 413.90 
116.65 -57.25 415.20 
118.10 -57.20 414.80 
118.85 -57.20 414.60 
-44.30 -56.60 414.95 
-25.55 -55.75 409.15 
-24.20 -55.90 409.95 
-23.65 -56.00 410.70 
-22.00 -55.95 410.50 
15.00 -56.00 410.80 
16.35 -55.65 408.50 
16.70 -54.25 398.15 
17.75 -54.90 402.85 
24.35 -55.90 410.25 
34.05 -55.55 407.55 
35.55 -55.55 407.35 
35.70 -54.95 403.10 
37.00 -55.55 407.70 
37.80 -55.50 407.35 
38.35 -55.70 408.45 
38.95 -55.75 409.10 
55.45 -55.75 408.70 
57.15 -55.55 407.25 
104.15 -56.60 414.65 
110.00 -56.75 415.55 
110.75 -56.70 415.40 
116.65 -56.70 415.25 
118.10 -56.75 415.55 
118.85 -56.60 414.30 
147.75 -55.50 406.15 
-44.25 -56.00 414.85 
-25.20 -54.45 403.65 
-24.75 -54.60 404.65 
-24.45 -55.40 410.55 
-23.85 -55.50 411.25 
-22.00 -55.40 410.55 
-2.15 -55.10 408.30 
-0.95 -54.55 404.25 
-0.10 -55.20 409.30 
15.00 -55.45 410.80 
16.30 -55.15 408.60 
37.05 -55.00 407.45 
38.45 -55.05 408.05 
55.45 -55.20 408.75 
57.25 -54.90 406.70 
80.45 -56.20 416.10 
86.15 -56.60 418.90 
98.35 -55.95 414.00 
101.15 -56.35 416.85 
104.15 -56.10 415.00 
110.00 -56.20 415.60 
110.75 -56.15 415.20 
111.45 -56.20 415.75 
147.75 -54.95 406.15 
-46.30 -55.85 417.80 
-44.75 -55.30 413.95 
-21.85 -54.15 405.50 
0.10 -54.55 408.40 
15.45 -54.65 409.05 
15.80 -54.05 404.70 
37.00 -54.50 407.80 
37.60 -54.55 408.40 
38.60 -54.40 407.25 
39.05 -54.60 408.70 
45.95 -54.50 407.70 
80.40 -55.75 416.75 
86.15 -56.00 418.90 
98.35 -55.40 414.00 
101.15 -55.75 416.85 
101.85 -55.85 417.55 
104.15 -55.45 414.50 
110.00 -55.70 416.25 
111.45 -55.80 417.00 
-46.30 -55.25 417.80 
-43.15 -55.35 418.55 
-28.85 -54.40 411.50 
-41.75 -83.25 629.55 
-24.45 -54.00 408.40 
-22.90 -54.05 408.55 
-22.45 -54.15 409.55 
-22.00 -54.30 410.55 
-20.90 -54.20 409.75 
-6.85 -54.35 410.95 
-3.20 -54.10 409.25 
15.90 -53.85 407.25 
35.00 -53.75 406.60 
36.20 -53.95 408.05 
37.10 -53.85 407.35 
37.45 -54.10 409.15 
38.45 -53.95 408.05 
39.25 -53.95 407.80 
43.85 -53.85 407.20 
45.35 -53.80 406.90 
84.25 -54.90 414.85 
92.20 -55.25 417.40 
95.30 -55.05 415.65 
100.65 -54.50 411.60 
103.40 -54.95 415.05 
104.10 -55.10 415.85 
107.80 -55.10 415.95 
110.75 -55.00 415.10 
118.85 -54.90 414.20 
121.80 -54.95 414.75 
138.95 -53.65 404.60 
154.45 -54.20 408.90 
153.40 -53.65 404.70 
-46.30 -54.70 417.80 
-44.70 -54.20 413.90 
-24.45 -53.45 408.45 
-23.30 -53.90 411.95 
-22.10 -53.75 410.85 
-20.90 -53.65 409.75 
-13.10 -53.70 410.50 
-6.70 -53.70 410.40 
-3.75 -53.80 411.05 
36.95 -53.40 408.05 
37.50 -53.50 408.85 
38.30 -53.50 408.80 
43.85 -53.30 407.20 
49.65 -53.40 408.05 
55.80 -53.85 411.30 
40.10 -35.10 267.95 
81.10 -54.70 417.55 
84.25 -54.35 414.90 
95.25 -54.60 416.60 
98.95 -54.60 416.55 
99.15 -54.00 412.00 
101.15 -54.55 416.10 
101.90 -54.55 415.95 
102.65 -54.55 416.25 
104.10 -54.60 416.35 
105.60 -54.60 416.35 
118.85 -54.35 414.65 
139.75 -53.40 407.05 
-46.30 -54.15 417.85 
-44.80 -53.65 414.05 
-26.20 -53.25 411.00 
-24.80 -53.30 411.65 
-23.80 -53.25 411.05 
-22.65 -53.10 410.15 
-18.30 -53.00 409.15 
-16.80 -53.05 409.50 
-13.30 -53.90 416.05 
-6.70 -53.15 410.45 
-5.55 -53.00 409.20 
-3.20 -53.00 409.25 
-1.65 -53.00 409.20 
36.85 -52.90 408.55 
71.45 -54.05 417.05 
72.20 -54.05 416.85 
81.15 -54.00 416.65 
82.75 -53.85 415.25 
73.90 -44.40 342.40 
93.05 -54.00 416.30 
94.60 -53.75 414.50 
95.25 -54.05 416.60 
96.00 -54.05 416.60 
96.75 -53.90 415.70 
98.25 -53.95 415.85 
99.70 -54.00 416.35 
100.40 -54.10 416.95 
101.20 -53.95 416.10 
101.95 -53.90 415.55 
102.65 -53.90 415.45 
103.40 -54.00 416.10 
104.90 -53.85 414.95 
118.10 -54.30 418.60 
-46.30 -53.55 417.85 
-44.65 -53.05 413.75 
-25.10 -52.60 410.25 
-23.95 -52.75 411.60 
-6.65 -52.60 410.30 
-5.75 -52.55 409.95 
-4.75 -52.45 409.20 
71.45 -53.50 417.05 
77.55 -53.30 415.65 
89.35 -53.45 416.40 
91.15 -54.20 422.30 
90.75 -53.55 417.20 
95.25 -53.45 416.60 
95.95 -53.55 417.35 
96.80 -53.25 415.00 
97.50 -53.35 415.60 
98.20 -53.50 416.65 
98.90 -53.50 417.00 
99.70 -53.45 416.40 
100.40 -53.50 416.80 
101.20 -53.40 416.10 
102.65 -53.45 416.20 
103.40 -53.30 415.15 
112.95 -53.60 417.25 
130.45 -52.50 408.70 
134.05 -52.50 408.60 
140.50 -54.30 422.60 
-46.30 -53.00 417.85 
-44.65 -52.50 413.80 
-25.90 -52.60 414.85 
-24.55 -52.10 411.00 
-23.90 -52.15 411.35 
-12.05 -51.95 409.70 
-5.80 -52.00 410.10 
37.70 -51.75 408.00 
71.50 -52.85 416.40 
77.55 -52.75 415.65 
89.20 -53.10 418.25 
90.05 -52.90 416.50 
90.75 -53.00 417.35 
95.10 -53.15 418.50 
96.00 -52.90 416.55 
96.75 -52.85 416.00 
97.55 -52.75 415.45 
98.25 -52.85 416.10 
101.15 -52.90 416.35 
102.00 -52.65 414.35 
102.70 -52.75 415.25 
103.35 -52.95 416.80 
110.05 -52.75 415.35 
110.75 -52.85 416.00 
111.50 -52.75 415.40 
111.60 -52.25 411.25 
112.35 -52.15 410.35 
114.45 -52.60 414.05 
115.95 -52.70 414.65 
127.55 -52.05 409.55 
-47.00 -52.65 419.70 
-44.65 -51.95 413.80 
-43.90 -51.95 414.00 
-40.60 -51.95 414.15 
-25.55 -51.35 409.25 
-24.35 -51.50 410.40 
-23.70 -51.55 410.85 
-6.35 -51.65 411.90 
77.55 -52.20 415.65 
81.15 -52.35 416.65 
81.70 -51.65 411.20 
87.15 -52.25 416.00 
89.35 -52.30 416.40 
90.05 -52.35 416.75 
90.90 -52.15 415.25 
92.25 -52.45 417.45 
95.15 -52.55 418.50 
96.00 -52.30 416.45 
96.70 -52.35 416.65 
97.50 -52.30 416.10 
98.20 -52.35 416.60 
99.65 -52.45 417.35 
100.35 -52.50 417.85 
101.25 -52.05 414.15 
101.95 -52.25 415.80 
102.65 -52.20 415.55 
103.35 -52.35 416.45 
107.10 -52.25 415.70 
108.55 -52.15 415.10 
115.90 -52.35 416.50 
116.65 -52.45 417.15 
127.55 -51.50 409.55 
133.40 -51.50 409.75 
139.10 -51.35 408.15 
154.35 -51.20 407.20 
-46.30 -51.85 417.85 
-44.70 -51.35 413.80 
-44.00 -51.45 414.30 
-25.55 -50.80 409.25 
-24.00 -50.80 409.45 
-22.60 -51.20 412.40 
-5.80 -50.90 410.10 
12.35 -50.80 409.30 
18.10 -50.95 410.75 
30.20 -50.20 404.60 
72.30 -51.65 416.00 
73.70 -51.75 416.85 
42.35 -29.10 234.30 
76.85 -51.60 415.30 
80.25 -52.00 418.70 
80.75 -51.30 413.15 
81.35 -51.55 414.85 
81.65 -51.15 411.75 
86.30 -51.80 417.15 
87.00 -51.90 417.85 
87.95 -51.55 414.95 
90.05 -51.85 417.10 
92.25 -51.90 417.50 
92.95 -51.90 417.75 
95.15 -52.00 418.50 
96.00 -51.80 416.65 
96.75 -51.70 416.00 
98.25 -51.75 416.30 
99.70 -51.75 416.40 
101.20 -51.60 415.35 
106.25 -52.00 418.25 
107.10 -51.60 415.30 
108.55 -51.60 415.25 
109.30 -51.60 415.20 
115.95 -51.55 414.65 
118.85 -51.90 417.45 
153.70 -50.80 408.25 
154.50 -50.90 408.95 
155.10 -50.70 407.45 
-46.30 -51.30 417.85 
-44.75 -50.85 413.95 
-44.10 -50.90 414.45 
-22.60 -50.60 412.40 
12.35 -50.25 409.30 
18.10 -50.40 410.75 
42.90 -50.10 408.30 
72.30 -51.10 416.00 
73.70 -51.15 416.55 
75.35 -51.00 415.35 
76.75 -51.10 416.10 
80.25 -51.45 418.70 
81.25 -51.10 415.75 
82.70 -51.10 415.80 
86.30 -51.25 417.15 
87.00 -51.30 417.65 
95.15 -51.45 418.50 
98.95 -51.20 416.65 
101.25 -51.05 415.10 
102.65 -51.15 416.05 
103.40 -51.05 415.40 
107.10 -51.05 415.30 
108.60 -51.00 414.85 
109.30 -51.10 415.60 
125.40 -50.35 409.30 
153.55 -50.00 406.50 
154.35 -50.10 407.20 
155.10 -50.15 407.70 
155.65 -49.95 405.75 
-46.30 -50.75 417.90 
-44.80 -50.30 414.10 
-44.05 -50.30 414.30 
-0.65 -54.95 452.65 
84.50 -51.20 421.30 
84.95 -50.50 415.70 
86.30 -50.70 417.15 
87.00 -50.80 417.90 
86.75 -50.05 411.70 
95.15 -50.85 418.55 
101.25 -50.45 415.10 
102.65 -50.55 415.90 
107.10 -50.60 416.20 
107.80 -50.70 417.00 
108.60 -50.40 414.45 
83.45 -50.00 416.05 
85.10 -49.75 413.85 
86.30 -50.15 417.15 
87.05 -50.15 417.50 
87.95 -49.90 415.10 
92.25 -50.20 417.50 
93.05 -50.10 416.70 
93.85 -49.95 415.55 
95.25 -50.10 416.70 
101.95 -50.00 415.85 
107.10 -50.00 415.70 
108.60 -49.90 414.90 
-27.00 -49.35 415.75 
-12.65 -48.85 411.55 
-11.05 -48.85 411.65 
18.55 -48.55 409.00 
34.50 -41.50 349.60 
84.10 -49.50 416.85 
86.30 -49.55 417.20 
92.30 -49.55 417.00 
93.00 -49.55 416.90 
93.85 -49.40 415.55 
93.40 -48.85 411.20 
95.25 -49.50 416.50 
104.90 -49.35 415.05 
106.40 -49.30 414.65 
107.85 -49.45 416.10 
110.00 -49.70 418.20 
-46.30 -49.05 417.90 
-44.75 -48.60 414.10 
-12.65 -48.30 411.55 
18.55 -48.00 409.00 
19.80 -48.10 410.25 
34.50 -41.00 349.60 
75.35 -48.80 415.40 
76.80 -48.80 415.75 
95.25 -48.95 416.70 
104.90 -48.80 415.05 
110.00 -49.15 418.20 
136.25 -48.10 409.00 
-44.05 -48.10 414.45 
-39.90 -47.85 412.40 
-27.40 -47.55 409.95 
74.50 -48.35 416.45 
75.30 -48.30 416.20 
75.85 -48.50 417.70 
76.65 -48.40 417.00 
76.60 -47.70 410.75 
77.20 -47.80 411.95 
79.05 -48.20 415.40 
121.80 -48.20 414.90 
128.30 -47.70 410.30 
136.25 -47.55 409.00 
142.55 -47.05 404.65 
-44.05 -47.50 414.45 
-39.90 -47.30 412.40 
-22.15 -38.30 334.40 
-8.40 -46.80 408.20 
-6.85 -47.10 411.10 
12.35 -46.90 409.35 
74.40 -47.85 417.20 
75.30 -47.75 416.20 
75.90 -47.85 417.20 
76.65 -47.85 417.05 
77.50 -47.75 416.40 
77.25 -47.20 411.60 
79.05 -47.65 415.45 
90.45 -48.40 421.70 
107.25 -57.00 496.85 
90.85 -47.75 416.10 
91.55 -47.85 416.85 
104.15 -47.80 416.15 
104.85 -47.85 416.90 
105.60 -47.80 416.25 
106.35 -47.75 416.15 
107.85 -47.75 416.10 
109.30 -47.85 416.65 
110.05 -47.65 415.10 
121.80 -47.65 414.90 
128.30 -47.15 410.30 
-44.10 -46.95 414.50 
-39.90 -46.70 412.40 
-8.40 -46.20 408.20 
31.65 -43.60 385.05 
74.50 -47.20 416.45 
75.25 -47.20 416.55 
75.95 -47.25 416.75 
76.70 -47.25 416.75 
76.50 -46.65 411.60 
155.00 -84.95 749.05 
89.25 -47.45 418.35 
90.10 -47.20 416.10 
90.95 -47.10 415.20 
104.15 -47.20 416.20 
105.60 -47.30 416.80 
106.35 -47.25 416.50 
107.10 -47.15 415.50 
108.55 -47.30 416.80 
109.30 -47.20 415.95 
110.05 -47.25 416.40 
-44.00 -46.35 414.30 
-22.00 -45.95 410.70 
68.60 -46.60 416.10 
42.95 -28.55 255.15 
64.95 -42.45 379.20 
74.30 -46.85 418.35 
75.25 -46.65 416.65 
75.95 -46.65 416.70 
76.70 -46.65 416.65 
77.45 -46.65 416.55 
86.40 -46.65 416.30 
85.95 -46.25 412.85 
89.35 -46.65 416.55 
101.95 -46.60 415.90 
104.15 -46.65 416.20 
105.65 -46.60 415.90 
106.35 -46.65 416.40 
70.85 -30.90 275.60 
143.35 -60.50 539.85 
-44.00 -45.80 414.30 
-43.65 -45.95 415.55 
-42.25 -45.35 409.95 
2.95 -44.65 404.20 
10.25 -45.15 408.55 
68.35 -46.25 417.95 
69.35 -46.00 416.05 
70.05 -46.05 416.25 
70.95 -45.90 415.10 
65.00 -41.90 378.85 
74.50 -46.10 416.50 
75.95 -46.15 416.95 
76.75 -46.10 416.50 
76.55 -45.50 411.15 
77.40 -45.35 410.05 
79.10 -45.95 415.45 
86.40 -46.05 416.15 
98.95 -46.15 416.75 
101.95 -46.05 415.90 
103.45 -46.00 415.50 
104.15 -46.10 416.20 
106.95 -46.60 420.95 
105.05 -45.65 412.40 
107.00 -46.40 419.10 
118.90 -46.05 415.75 
121.85 -46.15 416.75 
-44.10 -45.30 414.65 
-38.80 -44.95 411.70 
-23.10 -44.95 411.50 
68.40 -45.65 417.95 
69.05 -45.75 418.70 
70.05 -45.50 416.45 
70.85 -45.45 415.95 
74.50 -45.50 416.50 
75.20 -45.60 417.30 
75.95 -45.55 416.85 
76.75 -45.50 416.45 
76.55 -44.95 411.15 
86.20 -45.80 419.10 
107.00 -45.85 419.10 
121.85 -45.80 418.65 
122.60 -45.70 417.50 
123.30 -45.35 414.65 
124.05 -45.45 415.25 
-44.10 -44.70 414.65 
-34.55 -43.65 404.95 
-33.65 -44.35 411.30 
68.40 -45.10 417.95 
64.95 -42.50 393.95 
70.10 -44.90 416.15 
70.75 -44.95 416.70 
71.50 -45.00 416.90 
75.35 -44.85 415.45 
76.90 -44.80 415.05 
121.85 -45.05 416.80 
121.80 -44.50 411.60 
124.75 -44.95 415.95 
-36.85 -44.00 413.20 
-35.35 -43.80 411.50 
-35.10 -44.00 413.00 
-33.30 -43.70 410.35 
-12.05 -43.65 409.85 
-10.80 -43.75 410.80 
-10.55 -43.95 412.70 
-0.10 -43.60 409.50 
1.70 -43.50 408.60 
2.45 -43.80 411.35 
9.20 -43.60 409.45 
71.35 -44.55 418.05 
75.20 -44.50 417.35 
80.60 -44.25 415.15 
110.80 -44.30 415.35 
112.30 -44.25 414.90 
142.80 -51.95 486.80 
123.30 -44.55 417.30 
124.80 -44.40 415.95 
130.50 -43.65 408.90 
139.25 -43.80 410.10 
153.75 -43.60 408.40 
-40.50 -44.00 418.35 
-36.85 -43.45 413.20 
-12.05 -43.10 409.85 
-10.70 -43.40 413.10 
-0.10 -43.05 409.50 
1.35 -41.40 394.00 
2.10 -41.40 394.00 
3.00 -43.05 409.55 
4.60 -43.60 414.95 
9.20 -43.05 409.45 
16.45 -42.90 408.30 
24.05 -42.60 405.30 
45.65 -43.10 409.70 
69.25 -43.85 416.85 
70.70 -43.90 417.15 
71.35 -44.00 418.20 
72.20 -43.90 417.35 
74.50 -43.85 416.55 
75.20 -43.90 417.35 
75.95 -43.90 417.10 
76.75 -43.80 416.45 
87.15 -43.80 416.20 
93.05 -43.85 416.50 
98.30 -43.80 416.10 
110.80 -43.75 415.35 
112.30 -43.70 414.95 
118.90 -44.00 417.65 
120.35 -43.85 416.45 
121.85 -43.90 416.80 
123.30 -43.85 416.40 
130.50 -43.10 408.90 
153.75 -43.05 408.40 
-40.50 -43.40 418.35 
-18.30 -42.45 409.35 
-10.55 -42.80 412.75 
0.40 -42.85 413.15 
1.95 -42.30 407.75 
3.00 -42.50 409.60 
4.45 -42.50 409.85 
21.65 -42.45 408.90 
45.65 -42.50 409.70 
71.50 -43.25 416.70 
74.30 -43.45 418.40 
87.15 -43.25 416.20 
93.05 -43.30 416.50 
118.90 -43.25 415.80 
121.85 -43.55 418.65 
123.30 -43.30 416.40 
-61.80 -72.05 703.20 
-29.50 -42.35 413.50 
-28.65 -41.85 408.85 
0.40 -42.00 410.40 
1.95 -42.05 410.45 
3.00 -41.95 409.60 
12.35 -41.95 409.45 
39.85 -41.85 408.85 
41.15 -41.60 406.15 
45.65 -41.95 409.70 
47.45 -41.80 408.05 
48.35 -41.70 407.10 
69.25 -42.75 416.90 
69.90 -42.15 411.40 
74.30 -42.90 418.40 
80.60 -42.55 415.20 
82.10 -42.55 414.85 
96.10 -42.65 415.75 
97.60 -42.60 415.35 
115.95 -42.75 416.70 
119.65 -42.75 416.50 
121.10 -42.75 416.50 
121.85 -42.85 417.60 
123.30 -42.80 416.75 
148.70 -42.00 408.80 
-28.85 -41.60 411.70 
-23.10 -41.60 411.55 
3.00 -41.40 409.60 
46.00 -41.25 407.95 
36.80 -32.65 322.90 
47.35 -41.35 408.85 
68.60 -42.10 416.15 
70.05 -42.15 416.60 
71.45 -42.20 417.30 
72.55 -41.90 414.35 
74.30 -42.30 418.45 
76.05 -42.10 416.20 
77.45 -42.15 416.80 
77.15 -41.70 412.40 
80.25 -42.35 418.90 
81.20 -42.15 416.90 
82.10 -41.95 414.85 
89.25 -42.35 418.50 
96.10 -42.10 415.75 
115.95 -42.20 416.70 
121.85 -42.20 416.85 
121.10 -41.75 412.50 
123.30 -42.05 415.25 
134.10 -41.40 408.80 
-39.90 -41.15 412.50 
-32.60 -41.20 413.00 
-23.10 -41.05 411.55 
-0.10 -40.30 404.15 
1.15 -40.90 410.45 
3.50 -40.90 410.55 
68.60 -41.50 416.20 
70.10 -41.55 416.30 
71.45 -41.65 417.35 
74.30 -41.75 418.45 
75.35 -41.50 415.90 
75.90 -41.65 417.45 
75.75 -41.10 411.90 
77.45 -41.65 417.10 
77.10 -41.20 412.95 
81.20 -41.60 416.85 
82.05 -41.50 415.75 
84.65 -41.90 419.60 
85.05 -41.40 414.95 
89.25 -41.80 418.50 
92.25 -41.70 417.70 
73.75 -33.05 330.90 
93.90 -41.50 415.40 
119.65 -41.60 416.55 
121.10 -41.60 416.15 
121.85 -41.45 415.00 
123.30 -41.45 414.60 
-39.90 -40.60 412.50 
-35.70 -40.55 412.45 
-33.05 -39.85 405.35 
-0.10 -39.75 404.15 
1.25 -40.35 410.15 
3.45 -39.85 405.15 
4.80 -40.45 411.40 
48.20 -27.40 278.40 
73.70 -41.05 417.20 
74.30 -41.20 418.45 
75.30 -40.95 416.15 
75.85 -41.15 417.80 
76.70 -41.05 417.00 
77.50 -41.00 416.65 
77.15 -40.60 412.55 
79.05 -40.95 416.15 
79.75 -41.00 416.30 
80.35 -41.15 418.15 
81.30 -40.95 416.15 
81.95 -41.05 416.95 
87.15 -41.00 416.25 
89.25 -41.20 418.50 
102.00 -41.00 416.00 
121.85 -40.90 415.00 
-35.70 -40.00 412.45 
-33.50 -39.85 410.95 
-39.50 -58.95 607.95 
3.50 -39.80 410.55 
4.90 -39.85 411.10 
72.10 -40.60 418.05 
77.50 -40.45 416.70 
78.80 -40.65 418.50 
79.70 -40.45 416.70 
87.05 -40.60 418.10 
89.25 -40.65 418.50 
95.30 -40.50 416.90 
102.00 -40.40 416.05 
104.10 -40.65 418.15 
106.25 -40.85 420.35 
107.10 -40.60 417.65 
-45.15 -39.90 417.35 
-39.35 -39.30 411.10 
-35.70 -39.45 412.45 
-33.60 -39.35 411.30 
-46.85 -61.75 645.40 
-33.65 -49.50 517.75 
12.80 -39.00 407.75 
25.75 -39.00 407.80 
48.45 -39.35 411.15 
78.25 -39.90 416.70 
79.65 -39.95 417.40 
87.05 -40.05 418.10 
87.50 -39.50 412.35 
89.35 -39.95 417.20 
92.25 -40.00 417.75 
95.30 -39.95 416.90 
98.20 -40.05 418.00 
101.90 -40.05 417.90 
104.10 -40.05 418.20 
105.60 -40.05 417.80 
107.05 -40.15 419.20 
124.10 -40.15 419.05 
-45.15 -39.35 417.35 
-39.90 -38.90 412.55 
-36.15 -38.80 411.45 
-35.05 -38.95 412.90 
-33.65 -38.80 411.35 
12.80 -38.45 407.75 
25.75 -38.45 407.80 
48.45 -38.80 411.15 
87.20 -39.30 416.25 
88.65 -39.35 416.85 
90.05 -39.40 417.40 
151.15 -65.25 690.75 
92.30 -39.40 417.50 
96.10 -39.25 415.80 
97.55 -39.30 416.35 
97.00 -39.00 412.85 
104.10 -39.50 418.20 
116.70 -39.45 417.45 
116.75 -38.90 411.95 
118.90 -39.10 414.05 
122.60 -39.30 415.80 
124.05 -39.30 415.95 
-45.15 -38.80 417.35 
110.55 -47.55 510.75 
91.60 -38.80 416.75 
92.30 -38.85 417.55 
98.30 -38.75 416.20 
104.05 -39.10 420.05 
115.95 -38.80 416.75 
117.45 -38.75 416.30 
116.75 -38.35 411.95 
122.60 -38.90 417.65 
124.05 -38.70 415.70 
130.65 -38.60 414.40 
-22.00 -37.60 410.85 
-0.10 -37.75 412.25 
86.20 -38.45 419.25 
87.15 -38.25 417.00 
92.30 -38.30 417.55 
93.15 -38.10 415.70 
93.90 -38.10 415.45 
98.35 -38.10 415.45 
104.05 -38.55 420.10 
115.95 -38.25 416.75 
117.45 -38.30 417.20 
116.75 -37.85 412.25 
122.60 -38.15 415.80 
130.65 -38.05 414.40 
-23.10 -37.15 411.65 
-3.75 -37.10 411.30 
2.45 -37.10 411.45 
18.55 -36.90 409.20 
72.35 -37.60 416.25 
78.05 -37.80 418.60 
105.10 -49.20 544.95 
86.20 -37.85 419.30 
87.15 -37.65 416.95 
89.30 -37.75 417.65 
90.05 -37.70 417.40 
90.90 -37.60 416.30 
91.60 -37.70 417.05 
92.30 -37.75 417.80 
93.85 -37.65 416.45 
94.70 -37.45 414.35 
98.30 -37.60 415.85 
104.05 -37.95 420.10 
116.70 -37.60 415.60 
122.60 -37.75 417.65 
-3.75 -36.55 411.35 
-3.25 -36.60 412.25 
-2.15 -36.05 406.00 
6.10 -36.40 409.65 
45.65 -36.45 409.85 
72.10 -37.20 418.15 
86.40 -37.10 417.15 
89.35 -37.15 417.35 
92.30 -37.20 417.80 
93.00 -37.20 417.80 
93.85 -37.00 415.95 
94.60 -37.05 416.20 
107.85 -37.25 418.20 
122.60 -37.20 417.65 
124.05 -37.00 415.40 
-26.20 -36.00 411.30 
-16.25 -35.90 410.60 
72.10 -36.60 418.15 
73.85 -36.45 415.90 
92.35 -36.55 417.05 
93.05 -36.55 417.05 
98.20 -36.65 418.10 
104.90 -36.55 417.15 
116.70 -36.60 417.50 
122.60 -36.65 417.70 
124.10 -36.55 416.65 
-44.45 -35.80 415.55 
-40.50 -36.05 418.50 
-23.40 -36.80 427.20 
-16.65 -35.45 411.80 
-16.05 -35.55 412.45 
-3.75 -35.45 411.35 
-3.25 -35.50 412.25 
17.45 -34.10 395.70 
21.25 -35.40 410.85 
52.45 -35.30 409.75 
72.35 -35.90 416.30 
73.85 -35.85 415.95 
83.30 -36.05 418.20 
84.85 -36.05 417.85 
86.05 -36.35 421.20 
89.30 -36.05 418.15 
90.15 -35.95 416.50 
90.90 -35.95 416.65 
92.30 -36.05 417.80 
93.00 -36.10 418.50 
93.95 -35.80 415.05 
98.10 -36.25 419.95 
102.00 -35.90 416.10 
104.20 -35.95 416.40 
105.70 -35.90 416.00 
116.70 -36.05 417.50 
121.90 -36.00 416.95 
122.60 -36.05 417.70 
123.35 -35.90 415.60 
-45.15 -35.40 417.40 
-40.50 -35.50 418.50 
-26.50 -34.55 407.50 
-16.25 -34.80 410.60 
86.05 -35.75 421.20 
89.30 -35.50 418.00 
90.10 -35.40 417.05 
94.05 -35.05 412.80 
98.20 -35.50 418.10 
99.70 -35.50 417.70 
102.00 -35.35 416.15 
122.65 -35.50 417.70 
122.60 -34.95 411.30 
136.40 -34.95 411.00 
-44.45 -34.70 415.55 
-35.70 -34.45 412.55 
-26.85 -34.45 413.15 
-3.25 -34.60 414.95 
-1.90 -34.25 410.45 
-1.55 -34.35 411.80 
3.50 -34.25 410.65 
25.35 -34.20 409.65 
84.00 -35.00 419.00 
89.35 -34.85 417.15 
90.00 -35.00 418.70 
95.25 -34.90 417.45 
99.00 -34.85 416.95 
100.50 -34.80 416.55 
115.95 -35.00 418.70 
116.70 -35.05 419.40 
118.20 -34.45 412.10 
126.55 -36.20 432.90 
148.75 -34.20 408.90 
-26.85 -33.90 413.15 
-12.05 -33.65 410.00 
-3.20 -33.60 409.60 
-2.10 -33.75 411.05 
3.50 -33.70 410.65 
5.25 -33.20 404.50 
6.10 -33.60 409.70 
7.85 -33.55 409.05 
12.90 -33.70 410.45 
25.35 -33.65 409.65 
58.50 -33.55 408.65 
83.30 -34.35 418.25 
84.00 -34.45 419.00 
84.75 -34.40 418.80 
85.45 -34.50 419.55 
95.25 -34.35 417.95 
96.75 -34.35 417.55 
98.90 -34.45 418.85 
99.30 -33.85 411.50 
104.20 -34.25 416.45 
105.70 -34.20 416.05 
115.95 -34.45 418.70 
116.70 -34.50 419.40 
120.40 -34.65 421.10 
120.40 -34.25 416.45 
121.15 -34.35 417.75 
121.90 -34.25 416.30 
-44.45 -33.55 415.60 
-2.70 -33.15 410.50 
33.70 -33.10 409.80 
75.20 -33.75 417.55 
83.30 -33.80 418.25 
84.00 -33.85 419.00 
84.85 -33.80 417.90 
85.55 -33.80 418.20 
96.10 -33.65 415.90 
99.00 -33.70 417.00 
118.90 -33.95 419.70 
120.40 -33.70 416.35 
122.65 -33.70 416.25 
122.60 -33.45 413.15 
-44.45 -33.00 415.60 
-43.60 -33.00 415.60 
-28.85 -32.70 411.85 
-3.25 -32.70 412.30 
-1.50 -37.55 472.95 
12.90 -32.60 410.45 
31.35 -32.85 413.55 
40.80 -32.40 408.10 
61.30 -32.55 409.95 
75.20 -33.20 417.55 
78.55 -33.50 421.30 
90.10 -33.20 417.50 
101.90 -33.25 418.05 
103.50 -33.05 415.75 
118.95 -33.40 419.70 
120.40 -33.20 417.40 
121.90 -33.20 417.00 
122.65 -33.10 416.35 
123.35 -33.15 416.60 
124.10 -33.15 416.70 
-44.45 -32.45 415.60 
-43.90 -32.50 416.35 
-26.20 -32.10 411.35 
12.90 -32.00 410.50 
16.45 -31.85 408.50 
18.00 -31.85 408.40 
30.95 -31.85 408.30 
46.60 -31.90 408.95 
48.15 -31.90 408.70 
61.30 -32.00 409.95 
72.15 -32.65 418.20 
75.20 -32.60 417.55 
77.60 -32.50 416.05 
83.15 -32.80 420.15 
84.85 -32.65 417.90 
89.25 -32.70 418.65 
90.75 -32.75 418.90 
96.00 -32.65 417.80 
99.00 -32.60 417.00 
102.00 -32.55 416.20 
103.50 -32.50 415.75 
118.95 -32.80 419.70 
119.65 -32.70 418.35 
120.40 -32.55 416.05 
121.90 -32.60 417.00 
122.65 -32.65 417.75 
123.35 -32.60 416.60 
122.60 -32.30 412.70 
-44.45 -31.85 415.60 
-43.95 -31.95 416.50 
-42.90 -31.90 416.00 
-26.20 -31.55 411.40 
-22.00 -31.50 410.95 
-6.90 -31.55 411.35 
-0.60 -31.55 411.45 
15.25 -31.00 404.25 
16.80 -31.45 410.25 
18.00 -31.30 408.45 
37.60 -31.65 412.80 
38.45 -31.35 408.60 
46.60 -31.35 408.95 
48.15 -31.35 408.70 
71.05 -31.85 414.95 
74.55 -32.00 416.75 
76.05 -31.95 416.40 
83.15 -32.25 420.15 
89.25 -32.15 418.70 
89.95 -32.20 419.40 
90.80 -32.10 418.15 
92.40 -31.95 416.05 
95.20 -32.15 418.90 
95.95 -32.15 418.70 
98.35 -31.90 415.70 
99.80 -31.95 415.90 
102.00 -31.95 416.20 
103.50 -31.95 415.75 
118.95 -32.10 417.70 
119.70 -32.15 418.60 
120.40 -31.95 415.95 
-44.45 -31.30 415.60 
-44.00 -31.40 416.70 
-26.20 -31.00 411.40 
-25.25 -30.95 411.05 
-24.65 -31.00 411.55 
-22.00 -30.95 410.95 
-6.90 -31.00 411.35 
-4.40 -36.20 480.70 
-2.20 -31.00 411.40 
-0.60 -31.00 411.50 
4.00 -30.80 408.95 
15.25 -30.45 404.30 
37.15 -30.70 407.65 
33.10 -25.60 339.90 
46.60 -30.80 408.95 
48.00 -30.85 409.35 
37.35 -23.65 313.95 
49.60 -30.80 408.95 
71.50 -31.45 417.55 
72.25 -31.45 417.30 
73.00 -31.45 417.10 
74.55 -31.40 416.80 
76.05 -31.40 416.40 
77.40 -31.50 417.95 
80.40 -31.50 417.85 
81.15 -31.50 418.05 
81.90 -31.50 418.00 
82.60 -31.55 418.20 
89.15 -31.70 420.55 
90.10 -31.45 417.30 
90.85 -31.50 417.75 
93.00 -31.55 418.60 
95.10 -31.70 420.30 
96.05 -31.45 417.05 
98.30 -31.40 416.35 
99.75 -31.45 417.00 
113.05 -31.40 415.85 
118.95 -31.45 416.80 
121.90 -31.50 417.05 
122.65 -31.50 417.00 
123.35 -31.40 416.00 
-44.45 -30.75 415.60 
-43.95 -30.80 416.50 
-43.00 -30.80 416.25 
-28.85 -30.45 411.90 
-19.95 -30.50 412.15 
-19.00 -30.45 411.75 
-18.40 -30.50 412.30 
-15.75 -30.45 411.65 
-14.20 -30.45 411.75 
3.25 -30.45 411.60 
5.10 -30.35 410.65 
46.45 -30.30 409.85 
71.50 -30.90 417.55 
77.40 -30.95 417.95 
80.30 -31.05 419.10 
76.25 -29.20 394.20 
81.90 -30.95 418.10 
82.65 -30.95 417.80 
89.15 -31.15 420.55 
92.20 -31.10 419.75 
93.00 -31.00 418.60 
93.70 -31.00 418.70 
94.55 -30.95 417.70 
95.20 -31.05 418.90 
113.75 -31.00 418.45 
121.90 -31.05 418.90 
122.65 -30.95 417.65 
123.35 -30.80 415.65 
124.85 -31.00 418.05 
-44.45 -30.20 415.65 
-43.90 -30.25 416.50 
-43.00 -30.25 416.35 
-42.45 -30.30 417.10 
-38.80 -29.90 411.95 
-29.30 -29.85 410.85 
-28.10 -29.90 412.05 
-26.95 -29.50 406.55 
-19.95 -29.90 412.15 
-19.20 -29.95 412.25 
-18.40 -29.95 412.30 
2.30 -29.90 412.20 
37.70 -29.65 408.40 
39.50 -29.85 410.85 
46.30 -29.85 410.75 
83.25 -30.50 419.25 
89.30 -30.45 418.70 
92.20 -30.50 419.80 
93.05 -30.40 417.90 
93.75 -30.40 418.25 
94.60 -30.30 416.60 
95.25 -30.40 418.00 
101.15 -30.50 419.20 
147.85 -43.15 592.85 
113.75 -30.45 418.45 
121.90 -30.60 420.80 
122.65 -30.35 417.20 
123.35 -30.30 416.65 
145.80 -29.70 408.00 
-44.45 -29.65 415.65 
-42.35 -29.25 410.40 
-38.80 -29.35 411.95 
-28.85 -29.35 411.90 
-27.30 -29.35 412.15 
2.50 -29.30 411.60 
89.15 -30.00 420.60 
92.40 -29.75 416.70 
93.00 -29.85 418.25 
93.75 -29.85 418.40 
94.60 -29.70 416.35 
94.05 -29.50 413.45 
101.15 -29.90 419.25 
102.70 -29.75 417.05 
121.90 -30.05 420.80 
122.65 -29.80 417.15 
123.40 -29.75 416.65 
124.85 -29.85 418.10 
139.20 -29.20 408.55 
140.65 -29.15 408.10 
145.80 -29.15 408.00 
-44.45 -29.05 415.65 
-3.75 -28.75 411.45 
30.95 -28.55 408.40 
39.85 -28.60 409.10 
41.40 -28.60 408.95 
42.10 -28.60 409.30 
46.30 -28.70 410.80 
48.15 -28.60 408.75 
89.30 -29.25 418.20 
90.80 -29.30 418.55 
91.55 -29.25 418.20 
92.35 -29.20 417.20 
93.00 -29.30 418.65 
93.90 -29.15 416.25 
95.20 -29.35 418.95 
95.90 -29.40 419.70 
98.30 -29.15 416.55 
101.15 -29.35 419.25 
102.70 -29.20 417.20 
121.90 -29.35 418.95 
124.85 -29.30 418.10 
145.80 -28.60 408.00 
-44.45 -28.50 415.65 
-42.90 -28.55 416.05 
-22.60 -28.30 412.80 
-4.00 -28.25 412.40 
30.95 -28.00 408.40 
39.85 -28.05 409.10 
41.25 -28.10 409.95 
42.20 -28.00 408.65 
46.60 -28.05 409.00 
73.90 -28.55 416.05 
74.55 -28.60 416.85 
89.30 -28.70 418.45 
90.70 -28.80 419.60 
91.60 -28.65 417.20 
92.30 -28.70 417.95 
93.85 -28.65 417.10 
95.25 -28.70 418.20 
96.75 -28.65 417.65 
101.15 -28.75 418.90 
102.00 -28.65 417.20 
102.70 -28.65 416.95 
102.10 -28.45 414.05 
104.15 -28.70 417.70 
110.05 -28.75 418.60 
111.55 -28.70 418.15 
121.90 -28.75 418.55 
122.65 -28.75 418.75 
123.40 -28.65 417.15 
124.15 -28.70 417.40 
124.85 -28.70 417.85 
125.60 -28.75 418.60 
147.45 -28.25 411.20 
-44.45 -27.95 415.65 
-42.15 -27.85 414.20 
-4.30 -27.75 413.30 
39.85 -27.50 409.10 
41.25 -27.55 409.90 
42.25 -27.45 408.55 
75.00 -28.20 419.50 
89.30 -28.15 418.75 
90.80 -28.15 418.65 
91.60 -28.05 417.25 
92.30 -28.10 417.95 
93.85 -28.05 417.15 
95.30 -28.10 417.65 
96.70 -28.15 418.60 
97.45 -28.20 418.90 
101.25 -28.10 417.40 
102.70 -28.10 417.20 
103.40 -28.20 418.60 
104.15 -28.15 418.40 
110.05 -28.20 418.65 
111.55 -28.15 418.15 
121.90 -28.10 417.35 
123.40 -28.10 417.05 
124.85 -28.15 417.90 
-44.45 -27.40 415.70 
-42.35 -27.30 414.70 
3.00 -27.00 409.85 
12.35 -26.95 409.70 
28.05 -27.10 411.30 
36.80 -26.95 409.50 
40.45 -27.00 409.95 
42.05 -26.95 409.45 
48.75 -26.95 409.60 
50.60 -26.85 407.55 
74.55 -27.45 416.85 
77.20 -27.65 419.85 
76.95 -27.35 415.05 
78.95 -27.55 417.70 
89.30 -27.60 418.75 
90.80 -27.60 418.55 
91.50 -27.65 419.10 
92.25 -27.60 418.90 
92.90 -26.95 408.90 
96.70 -27.60 418.60 
97.50 -27.55 417.95 
101.15 -27.65 419.25 
101.95 -27.55 417.90 
102.65 -27.60 418.55 
103.40 -27.55 418.05 
104.15 -27.55 417.65 
104.90 -27.55 417.80 
105.60 -27.65 418.95 
106.40 -27.55 417.50 
109.20 -28.00 424.20 
110.80 -27.65 419.35 
121.90 -27.60 418.05 
145.05 -27.00 408.90 
-41.35 -26.85 416.40 
-22.00 -26.50 411.00 
-4.30 -26.65 413.30 
11.90 -26.55 411.50 
12.45 -26.60 412.40 
15.00 -26.50 411.35 
27.90 -26.35 408.65 
32.65 -23.45 363.35 
48.75 -26.40 409.60 
92.20 -27.10 419.85 
95.20 -27.05 419.00 
96.15 -26.85 416.05 
98.95 -27.05 418.95 
100.45 -27.00 418.35 
101.20 -27.00 418.20 
101.95 -27.05 418.50 
102.65 -27.00 418.30 
103.40 -27.05 418.85 
104.20 -26.95 417.20 
104.90 -27.05 418.55 
105.65 -27.00 418.05 
107.15 -27.00 417.60 
108.65 -26.95 417.20 
109.35 -27.05 418.30 
110.80 -27.10 419.35 
121.95 -27.10 419.00 
-43.70 -26.15 413.85 
-36.15 -26.00 411.70 
-29.50 -26.10 413.80 
-4.30 -26.10 413.30 
-1.15 -26.10 413.40 
11.90 -25.95 411.55 
15.00 -25.95 411.35 
27.90 -25.80 408.65 
29.45 -25.80 408.55 
87.05 -26.45 418.35 
87.45 -26.15 413.75 
92.30 -26.45 418.00 
178.00 -47.70 753.75 
101.15 -26.50 419.30 
101.90 -26.50 418.95 
102.65 -26.45 418.20 
103.40 -26.45 418.40 
104.20 -26.40 417.05 
104.90 -26.50 419.20 
105.70 -26.30 416.20 
107.90 -26.45 418.40 
109.35 -26.45 417.90 
110.80 -26.55 419.40 
70.85 -16.60 262.50 
124.90 -26.60 420.00 
-43.70 -25.55 413.85 
-37.55 -25.65 415.35 
-3.75 -25.40 411.50 
-0.70 -28.80 466.55 
11.90 -25.40 411.55 
15.00 -25.40 411.35 
16.35 -24.70 400.10 
25.75 -25.20 408.05 
36.80 -25.30 409.50 
52.10 -25.20 407.40 
73.30 -25.65 414.75 
75.75 -25.95 419.65 
76.65 -25.85 418.30 
83.35 -25.90 418.40 
92.20 -26.00 419.85 
92.90 -26.00 420.30 
93.90 -25.75 416.15 
98.30 -25.80 417.05 
97.75 -25.55 413.20 
99.75 -25.85 417.85 
100.50 -25.85 417.80 
101.20 -25.90 418.20 
101.90 -25.90 418.80 
102.70 -25.85 417.70 
103.45 -25.85 417.75 
104.20 -25.80 416.60 
110.15 -25.80 416.80 
111.60 -25.85 417.35 
112.35 -25.85 417.25 
124.90 -25.90 418.15 
132.25 -25.90 417.85 
132.10 -25.55 412.90 
159.70 -25.35 409.00 
-43.70 -25.00 413.90 
-75.00 -44.35 733.60 
-41.75 -25.10 415.35 
-18.90 -24.85 411.40 
-17.35 -24.85 411.60 
15.45 -24.75 409.55 
16.60 -24.10 399.25 
17.35 -24.45 405.10 
52.10 -24.60 407.40 
75.25 -25.25 417.70 
92.10 -25.50 421.75 
93.70 -25.40 419.80 
94.45 -25.35 419.10 
98.30 -25.30 417.70 
98.95 -25.35 418.75 
99.75 -25.25 417.50 
102.55 -25.50 421.65 
101.95 -25.30 418.20 
102.75 -25.25 417.00 
110.80 -25.40 419.40 
112.30 -25.35 418.55 
131.45 -25.15 415.35 
-43.30 -24.50 415.00 
-41.85 -24.55 415.55 
-31.95 -24.30 411.45 
-26.85 -24.40 413.30 
-18.90 -24.30 411.45 
-26.10 -37.75 639.40 
-15.10 -24.05 407.25 
8.75 -24.30 411.60 
15.45 -24.20 409.60 
17.00 -24.20 409.50 
43.20 -24.30 411.35 
74.15 -24.85 420.65 
92.10 -24.95 421.75 
93.70 -24.80 419.45 
94.45 -24.80 419.55 
98.85 -24.90 420.90 
100.50 -24.75 418.00 
110.85 -24.70 417.55 
112.30 -24.75 418.55 
131.40 -24.50 413.55 
-43.30 -23.95 415.00 
-41.80 -24.00 415.45 
-32.60 -23.85 413.25 
-26.85 -23.85 413.30 
-24.95 -23.80 412.60 
-15.75 -23.75 411.75 
6.15 -23.80 412.55 
8.75 -23.75 411.60 
21.70 -23.60 409.25 
34.05 -23.55 408.20 
33.10 -19.60 340.00 
43.20 -23.75 411.35 
54.60 -23.70 410.40 
73.95 -24.40 422.55 
89.30 -24.20 418.80 
93.00 -24.20 419.05 
93.75 -24.20 418.95 
94.50 -24.20 418.70 
99.05 -24.10 417.15 
110.85 -24.15 417.55 
112.30 -24.20 418.40 
122.65 -24.05 416.05 
127.85 -24.20 418.40 
130.70 -24.00 414.65 
145.00 -23.55 407.15 
-43.95 -23.75 420.95 
-41.75 -23.40 415.35 
-32.60 -23.30 413.30 
-6.35 -23.25 412.40 
6.15 -23.25 412.55 
12.35 -23.10 409.80 
21.70 -23.05 409.25 
27.50 -23.15 410.50 
34.05 -23.00 408.20 
41.45 -23.95 425.15 
54.60 -23.15 410.40 
64.35 -23.10 409.45 
45.75 -16.00 284.10 
73.95 -23.85 422.55 
75.00 -23.30 412.65 
89.30 -23.65 418.85 
92.20 -23.70 419.90 
107.60 -27.50 487.25 
107.05 -26.90 476.40 
148.35 -29.60 523.50 
122.65 -23.50 416.05 
127.85 -23.70 419.20 
130.75 -23.55 416.50 
138.75 -22.50 398.30 
145.00 -23.00 407.20 
154.00 -23.20 410.50 
-28.20 -22.55 410.25 
-26.65 -22.60 410.50 
-18.90 -22.65 411.45 
-6.35 -22.70 412.40 
-4.80 -22.70 412.45 
12.35 -22.55 409.80 
45.70 -22.55 410.10 
57.35 -22.65 411.65 
64.35 -22.55 409.45 
74.15 -23.15 420.65 
75.05 -23.10 419.60 
75.75 -23.10 419.55 
76.75 -23.00 417.35 
80.30 -23.10 419.25 
86.95 -23.15 420.30 
89.30 -23.05 418.85 
92.20 -23.15 419.90 
93.00 -23.05 418.75 
93.80 -23.00 417.60 
113.00 -23.25 421.60 
113.10 -22.95 416.00 
119.70 -23.10 418.75 
130.70 -22.85 414.65 
-42.05 -22.45 418.35 
-6.95 -22.10 411.80 
-6.20 -22.10 411.80 
-5.70 -22.15 412.75 
42.45 -23.20 432.60 
41.15 -21.80 406.50 
73.95 -22.70 422.55 
75.05 -22.55 419.55 
75.75 -22.55 419.70 
80.30 -22.50 419.25 
84.05 -22.50 419.20 
86.15 -22.60 420.80 
87.05 -22.50 418.55 
208.20 -53.10 988.20 
212.50 -53.55 996.45 
93.00 -22.50 418.80 
98.25 -22.50 418.35 
119.00 -22.50 418.05 
130.70 -22.30 414.65 
142.20 -22.05 409.65 
-42.05 -21.90 418.35 
-25.75 -21.55 412.55 
-23.10 -21.55 411.90 
-6.10 -21.50 411.55 
12.90 -21.45 410.65 
40.15 -21.55 411.85 
41.15 -21.25 406.50 
73.95 -22.10 422.55 
75.10 -21.95 419.05 
75.80 -21.95 419.20 
80.35 -21.95 418.80 
84.05 -21.95 419.25 
85.55 -21.95 418.85 
86.20 -22.00 420.50 
87.80 -21.95 419.20 
88.55 -21.95 419.25 
89.40 -21.90 417.80 
101.95 -21.90 418.25 
103.45 -21.90 418.40 
119.00 -21.90 418.05 
120.45 -21.90 417.60 
-42.80 -21.40 420.25 
-32.60 -21.05 413.30 
-13.70 -21.05 412.85 
-12.15 -21.05 412.95 
8.75 -20.95 411.65 
25.35 -20.90 409.90 
26.90 -20.85 409.75 
42.60 -20.90 410.65 
46.30 -20.95 410.90 
55.50 -20.85 409.40 
74.20 -21.45 420.30 
75.10 -21.35 419.10 
75.85 -21.35 419.05 
76.75 -21.30 417.35 
101.90 -21.45 420.10 
103.45 -21.35 418.05 
105.10 -18.35 359.60 
127.85 -21.30 417.40 
-42.05 -20.75 418.35 
-15.40 -20.60 415.55 
-13.80 -20.50 413.15 
8.65 -20.45 412.00 
24.95 -20.40 411.70 
26.75 -20.35 410.45 
30.20 -20.45 412.10 
74.15 -20.90 420.70 
75.15 -20.80 418.75 
75.85 -20.80 418.75 
76.70 -20.75 417.85 
80.15 -20.90 421.20 
81.15 -20.80 418.55 
81.70 -20.85 420.35 
101.90 -20.85 420.10 
103.35 -20.85 420.05 
127.90 -20.85 419.25 
-42.05 -20.20 418.40 
-36.40 -20.00 414.65 
-15.40 -20.05 415.55 
-13.85 -19.80 410.85 
-4.30 -19.95 413.45 
30.60 -19.80 410.30 
32.15 -19.80 410.15 
51.55 -19.85 411.05 
52.35 -19.80 410.65 
74.15 -20.30 420.70 
75.15 -20.20 418.60 
76.00 -20.15 417.60 
80.50 -20.15 417.45 
101.90 -20.30 420.15 
103.35 -20.30 420.15 
119.75 -20.25 418.80 
121.20 -20.25 418.40 
-41.95 -19.60 418.15 
-4.30 -19.40 413.45 
30.60 -19.25 410.30 
46.30 -19.25 410.95 
47.25 -19.00 405.65 
51.55 -19.30 411.05 
74.15 -19.75 420.70 
75.20 -19.65 418.25 
75.85 -19.65 418.95 
80.50 -19.60 417.45 
95.25 -19.70 419.10 
101.90 -19.75 420.15 
103.35 -19.75 420.85 
104.15 -19.70 419.65 
119.75 -19.60 416.95 
121.20 -19.60 416.55 
122.70 -19.65 418.00 
122.65 -19.45 413.40 
-42.80 -19.15 420.25 
-13.70 -18.80 412.90 
-13.20 -18.85 413.85 
-6.35 -18.75 412.50 
-4.85 -18.90 415.25 
19.95 -17.60 386.20 
30.60 -18.70 410.35 
42.30 -18.80 412.45 
46.30 -18.70 410.95 
47.25 -18.45 405.65 
49.40 -18.70 410.50 
50.90 -18.70 410.25 
74.15 -19.15 420.75 
75.15 -19.10 418.80 
75.90 -19.10 418.70 
76.25 -18.90 415.10 
213.30 -46.75 1024.85 
87.50 -18.85 413.00 
90.15 -19.05 417.75 
95.15 -19.20 421.00 
