ply
format ascii 1.0
element vertex 2214
property float x
property float y
property float z
end_header
66.95 -62.95 405.05 
75.05 -62.75 403.85 
74.05 -61.25 394.10 
77.20 -62.80 403.95 
77.95 -62.75 403.65 
84.35 -62.90 404.75 
85.15 -62.80 403.85 
100.95 -62.80 403.95 
101.70 -62.80 403.70 
102.40 -62.75 403.30 
105.30 -62.75 403.30 
106.00 -62.55 402.30 
106.70 -62.70 402.95 
107.40 -62.70 403.10 
108.15 -62.60 402.35 
111.65 -62.95 404.50 
112.45 -62.60 402.55 
118.80 -62.75 403.35 
120.25 -62.85 404.00 
120.95 -62.90 404.30 
125.95 -62.85 403.80 
133.10 -62.75 403.10 
138.85 -62.80 403.45 
139.50 -62.70 402.80 
140.25 -62.75 403.20 
140.95 -62.65 402.60 
141.65 -62.60 402.35 
142.35 -62.65 402.40 
-127.25 -63.05 408.55 
-126.50 -63.10 408.90 
-125.60 -63.10 409.05 
-124.90 -63.20 409.55 
-123.30 -63.00 408.45 
-121.45 -62.80 407.00 
-120.60 -62.80 407.20 
-120.40 -63.00 408.50 
-119.35 -63.00 408.35 
-118.45 -63.25 410.10 
-114.10 -62.60 405.80 
-113.20 -62.65 406.00 
-111.95 -62.55 405.45 
-111.85 -63.05 408.65 
-110.40 -62.90 407.80 
-109.15 -62.80 407.20 
-106.30 -62.55 405.45 
-105.50 -62.55 405.70 
-104.60 -62.60 405.80 
-103.70 -62.60 405.85 
-103.10 -62.70 406.45 
-101.80 -62.55 405.70 
-101.20 -62.65 406.35 
-99.90 -62.55 405.65 
-99.05 -62.55 405.75 
-98.75 -62.75 406.95 
-97.45 -62.65 406.15 
-96.45 -62.60 406.10 
-95.20 -62.50 405.40 
-94.35 -62.55 405.55 
-93.10 -62.45 404.95 
-92.35 -62.45 405.20 
-91.35 -62.45 405.05 
-90.50 -62.45 405.20 
-89.30 -62.35 404.60 
-87.30 -62.60 405.95 
-85.65 -62.35 404.45 
-84.90 -62.40 404.80 
-84.10 -62.40 404.95 
-83.00 -62.60 406.30 
-81.65 -62.50 405.45 
-80.40 -62.35 404.60 
-79.50 -62.35 404.65 
-77.05 -62.40 405.05 
-75.90 -62.35 404.50 
-75.10 -62.35 404.65 
-74.60 -62.45 405.40 
-71.60 -62.35 404.60 
-71.10 -62.45 405.45 
-70.00 -62.40 404.90 
-69.50 -62.50 405.75 
-68.20 -62.35 404.80 
-67.70 -62.50 405.55 
-66.85 -62.50 405.60 
-48.05 -60.60 393.45 
-47.25 -60.60 393.60 
-46.40 -60.60 393.45 
-45.75 -60.65 393.85 
-44.95 -60.65 393.90 
-44.10 -60.65 393.85 
-43.35 -60.65 394.00 
-42.55 -60.65 394.05 
-41.75 -60.65 394.00 
-40.95 -60.70 394.10 
-40.25 -60.70 394.35 
-39.45 -60.75 394.45 
-38.60 -60.70 394.30 
-37.85 -60.75 394.45 
-37.15 -60.75 394.60 
-36.40 -60.75 394.75 
-35.55 -60.75 394.65 
-34.80 -60.80 394.85 
-34.05 -60.80 394.95 
-33.25 -60.80 394.90 
-32.45 -60.80 394.90 
-31.65 -60.80 394.90 
-31.00 -60.85 395.30 
-30.10 -60.85 395.15 
-29.35 -60.85 395.20 
-28.55 -60.85 395.15 
-27.70 -60.80 395.10 
-26.95 -60.85 395.15 
-26.15 -60.85 395.15 
-25.35 -60.80 395.10 
-24.60 -60.85 395.20 
-23.75 -60.80 395.05 
-22.95 -60.80 395.00 
-22.10 -60.75 394.80 
-21.35 -60.80 395.00 
-20.55 -60.80 394.90 
-19.70 -60.75 394.75 
-18.90 -60.75 394.65 
-18.10 -60.75 394.55 
-17.20 -60.70 394.25 
-16.35 -60.65 394.05 
-15.55 -60.65 394.00 
-14.80 -60.65 394.10 
-14.00 -60.65 393.95 
-13.20 -60.65 393.90 
-12.40 -60.60 393.80 
-11.60 -60.60 393.70 
-10.80 -60.60 393.70 
-10.05 -60.60 393.75 
-9.30 -60.60 393.75 
-8.50 -60.60 393.60 
-7.75 -60.60 393.75 
-6.95 -60.60 393.60 
-6.20 -60.55 393.55 
-5.40 -60.55 393.50 
-4.75 -60.65 393.90 
-4.05 -60.65 394.10 
-3.30 -60.65 394.15 
-2.50 -60.65 394.10 
-1.70 -60.65 394.00 
-0.95 -60.65 394.00 
-0.15 -60.60 393.75 
0.60 -60.60 393.75 
1.40 -60.55 393.50 
2.20 -60.55 393.35 
3.00 -60.50 393.15 
3.80 -60.50 393.00 
4.65 -60.45 392.80 
5.40 -60.45 392.65 
6.15 -60.45 392.70 
6.90 -60.45 392.70 
7.70 -60.45 392.65 
8.55 -60.40 392.30 
9.30 -60.35 392.15 
10.10 -60.35 392.05 
10.85 -60.30 391.95 
11.65 -60.30 391.85 
12.35 -60.30 391.85 
13.10 -60.30 391.85 
13.85 -60.30 391.95 
14.60 -60.30 391.90 
15.35 -60.30 391.90 
16.10 -60.35 391.95 
16.80 -60.35 391.95 
17.55 -60.35 391.95 
18.30 -60.35 391.95 
19.00 -60.35 392.05 
19.70 -60.35 392.15 
20.50 -60.35 392.00 
21.15 -60.40 392.25 
21.90 -60.40 392.25 
22.55 -60.45 392.60 
23.25 -60.45 392.70 
24.00 -60.45 392.65 
24.65 -60.50 392.90 
25.30 -60.55 393.30 
26.00 -60.55 393.40 
26.75 -60.60 393.55 
27.35 -60.65 394.05 
28.05 -60.70 394.20 
28.80 -60.65 394.05 
29.55 -60.65 394.05 
30.20 -60.70 394.20 
30.70 -60.85 395.30 
31.35 -60.90 395.75 
32.00 -60.95 396.00 
32.75 -60.95 395.95 
33.45 -61.00 396.15 
34.25 -60.95 395.95 
34.80 -61.05 396.65 
35.35 -61.25 397.70 
35.90 -61.35 398.55 
36.60 -61.35 398.55 
37.60 -61.15 397.30 
40.95 -62.60 406.50 
44.85 -62.45 405.55 
45.70 -62.35 404.90 
46.35 -62.40 405.40 
47.05 -62.45 405.65 
47.85 -62.40 405.30 
48.70 -62.30 404.60 
50.65 -62.50 406.05 
54.00 -62.15 403.65 
54.80 -62.10 403.40 
55.55 -62.10 403.20 
56.25 -62.10 403.35 
57.00 -62.10 403.25 
57.75 -62.10 403.10 
59.15 -62.15 403.45 
59.80 -62.20 403.85 
63.35 -62.35 404.80 
66.90 -62.40 405.15 
66.90 -60.80 394.60 
70.65 -62.30 404.45 
74.30 -62.25 404.10 
75.05 -62.20 403.85 
75.80 -62.20 403.70 
76.50 -62.30 404.30 
77.25 -62.15 403.40 
78.00 -62.15 403.45 
78.70 -62.25 403.85 
84.40 -62.30 404.30 
85.20 -62.20 403.60 
85.95 -62.10 403.05 
91.60 -62.35 404.60 
92.25 -62.45 405.10 
96.65 -62.25 403.90 
101.00 -62.20 403.35 
101.70 -62.20 403.55 
103.85 -62.15 403.20 
104.55 -62.15 403.00 
105.30 -62.15 403.20 
106.00 -62.10 402.80 
106.70 -62.15 402.95 
107.40 -62.20 403.40 
108.15 -62.05 402.30 
108.85 -62.05 402.50 
109.55 -62.15 403.05 
111.65 -62.40 404.55 
112.45 -62.05 402.40 
119.55 -62.35 404.15 
121.00 -62.35 404.10 
126.65 -62.20 403.35 
133.15 -62.35 404.15 
138.10 -62.20 403.05 
138.80 -62.20 403.20 
139.50 -62.15 402.95 
140.20 -62.15 402.90 
140.95 -62.10 402.60 
141.65 -62.10 402.45 
142.35 -62.10 402.55 
147.55 -62.35 404.15 
-127.35 -62.50 408.75 
-126.60 -62.55 409.15 
-124.75 -62.35 407.65 
-124.20 -62.45 408.35 
-122.90 -62.35 407.80 
-121.60 -62.30 407.25 
-120.25 -62.15 406.60 
-120.05 -62.35 407.85 
-119.55 -62.50 408.65 
-118.20 -62.65 409.70 
-114.35 -62.10 406.30 
-113.40 -62.15 406.35 
-111.70 -62.45 408.40 
-110.45 -62.35 407.90 
-109.05 -62.20 407.00 
-107.85 -62.15 406.60 
-106.20 -61.95 405.30 
-105.45 -62.00 405.65 
-104.30 -61.95 405.25 
-103.85 -62.05 406.10 
-102.90 -62.05 406.10 
-101.25 -62.10 406.45 
-99.35 -62.10 406.35 
-98.80 -62.20 407.05 
-97.40 -62.05 406.10 
-96.45 -62.05 406.10 
-95.10 -61.95 405.25 
-94.30 -61.95 405.45 
-93.20 -61.90 405.10 
-92.35 -61.90 405.20 
-91.30 -61.85 404.90 
-90.55 -61.95 405.30 
-89.50 -61.90 405.00 
-85.60 -61.80 404.40 
-84.85 -61.80 404.65 
-84.20 -61.90 405.15 
-83.65 -62.00 405.85 
-82.95 -62.05 406.20 
-81.75 -61.95 405.55 
-80.55 -61.85 404.95 
-79.45 -61.80 404.55 
-75.25 -61.85 404.95 
-74.70 -61.95 405.65 
-71.15 -61.95 405.60 
-69.55 -62.00 405.85 
-68.30 -61.85 405.05 
-67.75 -61.95 405.70 
-67.15 -62.05 406.25 
-54.75 -61.55 403.30 
-53.90 -61.55 403.30 
-48.05 -60.10 393.60 
-47.30 -60.10 393.70 
-46.45 -60.05 393.55 
-45.75 -60.10 393.90 
-44.95 -60.10 393.85 
-44.10 -60.10 393.85 
-43.35 -60.15 394.00 
-42.50 -60.10 393.90 
-41.70 -60.10 393.90 
-40.95 -60.15 394.10 
-40.25 -60.20 394.35 
-39.45 -60.20 394.45 
-38.70 -60.20 394.50 
-37.90 -60.20 394.50 
-37.20 -60.25 394.70 
-36.40 -60.25 394.80 
-35.60 -60.25 394.80 
-34.85 -60.25 394.95 
-34.15 -60.30 395.15 
-33.20 -60.25 394.85 
-32.40 -60.25 394.80 
-31.65 -60.25 394.95 
-31.00 -60.35 395.40 
-30.15 -60.30 395.25 
-29.35 -60.30 395.20 
-28.55 -60.30 395.25 
-27.75 -60.30 395.15 
-26.95 -60.30 395.20 
-26.15 -60.30 395.15 
-25.40 -60.30 395.20 
-24.60 -60.30 395.20 
-23.80 -60.30 395.15 
-23.00 -60.30 395.10 
-22.20 -60.30 395.10 
-21.40 -60.30 395.10 
-20.60 -60.30 395.05 
-19.75 -60.25 394.90 
-18.95 -60.25 394.80 
-18.05 -60.20 394.50 
-17.25 -60.15 394.40 
-16.40 -60.15 394.10 
-15.60 -60.15 394.20 
-14.80 -60.10 394.10 
-14.00 -60.10 394.00 
-13.25 -60.15 394.10 
-12.35 -60.05 393.70 
-11.60 -60.05 393.70 
-10.85 -60.05 393.75 
-10.00 -60.05 393.60 
-9.30 -60.05 393.70 
-8.50 -60.05 393.65 
-7.75 -60.05 393.65 
-6.95 -60.05 393.55 
-6.15 -60.05 393.50 
-5.45 -60.05 393.70 
-4.70 -60.05 393.75 
-4.00 -60.10 393.90 
-3.25 -60.10 393.95 
-2.50 -60.10 394.00 
-1.75 -60.10 394.10 
-0.90 -60.05 393.80 
-0.10 -60.05 393.60 
0.55 -60.10 393.85 
1.35 -60.05 393.65 
2.15 -60.05 393.55 
2.90 -60.05 393.60 
3.65 -60.05 393.50 
4.55 -59.95 393.15 
5.30 -59.95 393.10 
6.10 -59.95 392.85 
6.90 -59.95 392.80 
7.70 -59.90 392.65 
8.55 -59.85 392.20 
9.35 -59.80 392.15 
10.10 -59.80 392.00 
10.85 -59.80 391.95 
11.65 -59.75 391.75 
12.40 -59.80 391.85 
13.15 -59.75 391.75 
13.90 -59.75 391.80 
14.65 -59.75 391.70 
15.35 -59.80 391.95 
16.05 -59.80 392.00 
16.85 -59.80 391.85 
17.55 -59.80 391.95 
18.30 -59.80 391.90 
19.05 -59.75 391.75 
19.75 -59.80 391.90 
20.50 -59.80 391.85 
21.20 -59.80 392.00 
21.95 -59.80 391.95 
22.60 -59.85 392.30 
23.30 -59.85 392.45 
24.10 -59.85 392.30 
24.80 -59.85 392.30 
25.50 -59.90 392.45 
26.15 -59.95 392.80 
26.90 -59.95 392.80 
27.55 -60.00 393.20 
28.20 -60.00 393.40 
28.95 -60.00 393.35 
29.65 -60.05 393.45 
30.40 -60.05 393.45 
31.00 -60.10 393.95 
31.70 -60.15 394.30 
32.25 -60.30 395.05 
32.90 -60.35 395.40 
33.60 -60.35 395.50 
34.30 -60.35 395.60 
35.00 -60.40 395.90 
35.55 -60.50 396.60 
36.85 -60.65 397.35 
37.65 -60.60 397.10 
38.40 -60.60 397.00 
41.85 -60.75 398.05 
42.60 -60.70 397.85 
44.75 -61.95 406.05 
45.55 -61.90 405.70 
46.35 -61.85 405.25 
47.05 -61.90 405.70 
47.85 -61.85 405.35 
48.65 -61.80 404.75 
49.30 -61.90 405.55 
49.95 -61.95 406.00 
50.65 -62.00 406.15 
54.05 -61.60 403.50 
54.75 -61.65 403.75 
55.50 -61.55 403.35 
56.25 -61.55 403.20 
57.00 -61.55 403.20 
57.70 -61.60 403.50 
62.65 -61.80 404.65 
63.45 -61.70 404.20 
64.25 -61.65 403.70 
64.95 -61.65 403.70 
66.95 -61.80 404.75 
66.90 -60.25 394.65 
70.70 -61.70 404.00 
74.35 -61.70 403.90 
75.10 -61.65 403.60 
75.80 -61.65 403.60 
76.55 -61.70 403.85 
77.95 -61.65 403.80 
78.70 -61.70 403.85 
80.80 -61.70 404.10 
83.70 -61.70 404.05 
84.45 -61.70 403.85 
85.20 -61.65 403.65 
85.90 -61.60 403.40 
89.45 -61.75 404.30 
91.55 -61.85 404.85 
92.30 -61.85 405.00 
99.55 -61.70 403.75 
100.25 -61.65 403.40 
103.15 -61.55 402.80 
103.85 -61.55 402.90 
105.30 -61.60 403.25 
106.00 -61.50 402.55 
106.70 -61.60 403.20 
107.40 -61.65 403.35 
108.15 -61.50 402.35 
108.85 -61.50 402.35 
109.55 -61.55 402.85 
111.65 -61.80 404.45 
112.40 -61.60 402.95 
121.00 -61.85 404.65 
133.15 -61.80 404.10 
137.35 -61.60 402.80 
138.10 -61.60 402.85 
138.80 -61.65 403.05 
139.50 -61.60 402.75 
140.25 -61.60 403.00 
140.95 -61.55 402.55 
141.65 -61.55 402.40 
142.35 -61.60 402.85 
143.05 -61.45 401.85 
147.55 -61.75 403.90 
152.55 -61.75 403.70 
155.35 -61.60 402.95 
156.05 -61.60 402.65 
-127.35 -61.95 408.75 
-126.15 -61.90 408.40 
-124.75 -61.80 407.60 
-123.65 -61.75 407.45 
-122.75 -61.75 407.55 
-121.55 -61.70 407.20 
-120.35 -61.65 406.70 
-119.60 -61.70 407.15 
-119.35 -61.90 408.30 
-118.80 -62.00 409.10 
-118.00 -62.05 409.35 
-117.40 -62.10 409.95 
-115.85 -61.95 408.95 
-112.50 -61.60 406.50 
-111.75 -61.65 406.80 
-111.30 -61.80 407.70 
-110.20 -61.75 407.45 
-108.65 -61.55 406.30 
-107.50 -61.50 405.95 
-106.35 -61.45 405.60 
-105.45 -61.45 405.65 
-104.50 -61.45 405.60 
-103.40 -61.40 405.30 
-103.15 -61.60 406.50 
-101.65 -61.45 405.50 
-101.25 -61.55 406.40 
-98.95 -61.70 407.35 
-97.50 -61.55 406.35 
-96.00 -61.40 405.30 
-94.75 -61.30 404.65 
-94.20 -61.40 405.30 
-93.00 -61.30 404.70 
-92.30 -61.35 405.15 
-91.30 -61.35 405.00 
-90.45 -61.35 405.10 
-89.50 -61.35 405.00 
-88.80 -61.40 405.40 
-87.25 -61.45 405.80 
-85.70 -61.25 404.55 
-84.85 -61.25 404.65 
-84.30 -61.40 405.35 
-83.80 -61.50 406.15 
-82.85 -61.50 406.05 
-81.80 -61.45 405.70 
-80.55 -61.30 405.00 
-76.25 -61.35 405.20 
-74.30 -61.25 404.80 
-71.15 -61.40 405.50 
-69.85 -61.25 404.60 
-68.90 -61.20 404.40 
-68.35 -61.30 405.10 
-67.75 -61.40 405.70 
-54.95 -61.10 403.85 
-53.90 -61.05 403.40 
-48.30 -59.60 394.05 
-47.30 -59.55 393.75 
-46.50 -59.55 393.70 
-45.75 -59.60 393.90 
-44.95 -59.60 393.85 
-44.15 -59.60 394.00 
-43.30 -59.60 393.90 
-42.50 -59.60 393.85 
-41.65 -59.55 393.85 
-40.95 -59.60 394.15 
-40.20 -59.65 394.20 
-39.45 -59.65 394.45 
-38.60 -59.65 394.35 
-37.85 -59.65 394.40 
-37.10 -59.65 394.55 
-36.40 -59.70 394.75 
-35.60 -59.70 394.80 
-34.80 -59.70 394.85 
-34.15 -59.75 395.15 
-33.30 -59.75 395.10 
-32.45 -59.75 394.95 
-31.80 -59.80 395.35 
-31.00 -59.80 395.40 
-30.10 -59.75 395.20 
-29.30 -59.75 395.15 
-28.60 -59.80 395.35 
-27.80 -59.80 395.30 
-26.95 -59.75 395.10 
-26.15 -59.75 395.15 
-25.35 -59.75 395.10 
-24.60 -59.75 395.20 
-23.85 -59.80 395.40 
-23.05 -59.80 395.30 
-22.25 -59.80 395.30 
-21.45 -59.75 395.25 
-20.65 -59.75 395.20 
-19.80 -59.75 395.05 
-18.95 -59.70 394.80 
-18.15 -59.70 394.70 
-17.35 -59.70 394.70 
-16.45 -59.60 394.30 
-15.65 -59.60 394.25 
-14.85 -59.60 394.25 
-14.00 -59.60 394.05 
-13.25 -59.60 394.10 
-12.40 -59.55 393.80 
-11.60 -59.55 393.80 
-10.80 -59.50 393.65 
-9.95 -59.50 393.45 
-9.20 -59.50 393.55 
-8.50 -59.50 393.60 
-7.65 -59.50 393.45 
-6.90 -59.50 393.50 
-6.15 -59.50 393.40 
-5.40 -59.50 393.60 
-4.70 -59.55 393.75 
-3.90 -59.55 393.70 
-3.15 -59.55 393.75 
-2.45 -59.55 393.90 
-1.70 -59.55 393.90 
-0.85 -59.50 393.65 
-0.10 -59.50 393.65 
0.65 -59.50 393.50 
1.35 -59.55 393.80 
2.20 -59.50 393.40 
2.85 -59.50 393.65 
3.60 -59.55 393.70 
4.45 -59.50 393.40 
5.20 -59.50 393.45 
6.00 -59.45 393.25 
6.85 -59.40 392.90 
7.65 -59.40 392.80 
8.55 -59.35 392.40 
9.25 -59.35 392.35 
10.05 -59.30 392.15 
10.85 -59.30 392.05 
11.65 -59.25 391.75 
12.35 -59.30 392.05 
13.15 -59.25 391.75 
13.90 -59.25 391.80 
14.60 -59.25 391.90 
15.40 -59.25 391.75 
16.05 -59.30 392.05 
16.85 -59.25 391.90 
17.55 -59.25 392.00 
18.25 -59.30 392.00 
19.05 -59.25 391.95 
19.80 -59.25 391.80 
20.50 -59.25 391.95 
21.25 -59.25 391.85 
21.95 -59.25 391.90 
22.70 -59.25 391.90 
23.40 -59.30 392.05 
24.15 -59.30 392.05 
24.85 -59.30 392.15 
25.55 -59.30 392.20 
26.25 -59.35 392.40 
27.00 -59.30 392.30 
27.65 -59.40 392.65 
28.40 -59.35 392.60 
29.05 -59.40 392.85 
29.75 -59.45 393.10 
30.45 -59.45 393.15 
31.15 -59.50 393.35 
31.85 -59.50 393.60 
32.50 -59.55 393.75 
33.15 -59.60 394.10 
33.80 -59.70 394.60 
34.60 -59.65 394.35 
35.30 -59.65 394.50 
37.85 -59.90 396.15 
38.60 -59.90 396.10 
39.40 -59.85 395.80 
40.05 -59.90 396.05 
41.80 -60.25 398.20 
42.50 -60.25 398.50 
43.30 -60.25 398.20 
44.30 -60.00 396.80 
46.20 -61.45 406.25 
47.10 -61.30 405.25 
47.85 -61.30 405.30 
49.15 -61.45 406.35 
50.70 -61.40 405.85 
54.70 -61.15 404.10 
55.50 -61.05 403.40 
62.70 -61.20 404.40 
63.50 -61.05 403.60 
64.15 -61.15 404.30 
64.90 -61.10 403.90 
66.75 -59.85 395.60 
69.95 -61.20 404.50 
70.80 -61.05 403.55 
73.55 -61.20 404.40 
74.35 -61.10 403.80 
75.05 -61.15 404.00 
75.80 -61.15 403.85 
76.55 -61.05 403.45 
77.35 -61.00 402.95 
78.70 -61.15 403.85 
79.45 -61.10 403.55 
81.50 -61.20 404.45 
83.75 -61.15 403.85 
84.45 -61.10 403.75 
85.20 -61.10 403.55 
85.90 -61.10 403.45 
86.75 -60.90 402.25 
89.45 -61.20 404.15 
91.60 -61.25 404.40 
96.70 -61.05 403.30 
98.10 -61.10 403.55 
102.40 -61.10 403.35 
103.15 -61.05 403.10 
103.85 -61.10 403.25 
104.60 -60.95 402.55 
105.30 -61.05 403.05 
106.00 -61.00 402.65 
106.70 -61.10 403.50 
107.45 -61.00 402.90 
108.85 -61.05 403.10 
111.70 -61.20 404.00 
112.40 -61.30 404.65 
114.55 -61.15 403.55 
133.15 -61.25 404.30 
138.80 -61.10 403.05 
140.25 -61.10 403.20 
140.95 -61.10 403.05 
141.65 -61.00 402.45 
142.35 -61.00 402.50 
143.05 -60.95 402.20 
143.80 -61.00 402.35 
148.20 -61.15 403.35 
151.05 -61.10 403.15 
152.45 -61.05 402.70 
156.85 -61.15 403.40 
-127.10 -61.35 408.35 
-125.20 -61.10 406.80 
-124.60 -61.20 407.35 
-123.60 -61.20 407.35 
-122.70 -61.20 407.50 
-121.50 -61.15 407.05 
-120.30 -61.10 406.70 
-119.95 -61.25 407.75 
-118.80 -61.20 407.35 
-118.70 -61.40 408.90 
-117.90 -61.45 409.15 
-117.20 -61.50 409.60 
-115.80 -61.40 408.85 
-113.20 -61.20 407.65 
-111.50 -61.05 406.40 
-110.80 -61.10 406.85 
-109.45 -61.00 406.10 
-108.40 -60.95 405.90 
-107.55 -60.95 406.05 
-106.20 -60.85 405.25 
-105.45 -60.90 405.65 
-104.65 -60.95 405.85 
-103.40 -60.85 405.35 
-102.50 -61.10 407.05 
-102.05 -61.25 407.90 
-101.00 -61.20 407.75 
-100.60 -61.35 408.65 
-99.30 -61.25 407.95 
-97.35 -60.95 406.00 
-95.90 -60.80 405.05 
-94.80 -60.75 404.70 
-94.15 -60.80 405.20 
-93.05 -60.75 404.80 
-92.35 -60.85 405.25 
-91.15 -60.75 404.65 
-90.55 -60.80 405.25 
-89.50 -60.80 405.00 
-89.10 -60.90 405.95 
-87.10 -60.85 405.55 
-85.55 -60.65 404.30 
-83.75 -60.90 406.00 
-82.30 -60.75 404.85 
-81.30 -60.75 404.75 
-80.20 -60.65 404.25 
-75.90 -60.70 404.50 
-74.85 -60.60 404.10 
-70.95 -60.75 405.15 
-70.15 -60.80 405.30 
-69.15 -60.75 405.00 
-68.50 -60.80 405.40 
-67.05 -60.90 406.10 
-55.00 -60.55 403.95 
-53.85 -60.45 403.20 
-48.30 -59.10 394.15 
-47.35 -59.05 393.90 
-46.50 -59.05 393.75 
-45.75 -59.05 393.95 
-44.95 -59.05 393.95 
-44.25 -59.10 394.20 
-43.35 -59.05 394.00 
-42.50 -59.05 393.85 
-41.70 -59.05 393.90 
-41.00 -59.10 394.20 
-40.25 -59.10 394.35 
-39.45 -59.10 394.40 
-38.65 -59.15 394.45 
-37.85 -59.15 394.45 
-37.10 -59.15 394.60 
-36.35 -59.15 394.70 
-35.55 -59.15 394.75 
-34.85 -59.20 394.95 
-34.10 -59.25 395.15 
-33.35 -59.25 395.15 
-32.50 -59.20 395.05 
-31.80 -59.25 395.40 
-31.00 -59.25 395.40 
-30.15 -59.25 395.30 
-29.40 -59.25 395.30 
-28.65 -59.25 395.40 
-27.85 -59.25 395.45 
-26.95 -59.20 395.15 
-26.20 -59.25 395.25 
-25.40 -59.20 395.15 
-24.65 -59.25 395.35 
-23.90 -59.25 395.45 
-23.05 -59.25 395.35 
-22.30 -59.25 395.50 
-21.45 -59.25 395.30 
-20.65 -59.25 395.25 
-19.80 -59.20 394.95 
-19.00 -59.20 394.90 
-18.15 -59.15 394.75 
-17.40 -59.15 394.80 
-16.50 -59.10 394.50 
-15.75 -59.15 394.60 
-14.90 -59.10 394.30 
-14.05 -59.05 394.15 
-13.25 -59.05 394.05 
-12.40 -59.00 393.90 
-11.60 -59.00 393.80 
-10.80 -59.00 393.70 
-9.90 -58.95 393.35 
-9.20 -58.95 393.45 
-8.45 -58.95 393.55 
-7.65 -58.95 393.40 
-6.90 -58.95 393.45 
-6.10 -58.95 393.30 
-5.35 -58.95 393.40 
-4.60 -58.95 393.55 
-3.85 -58.95 393.50 
-3.10 -58.95 393.55 
-2.40 -59.00 393.75 
-1.65 -59.00 393.85 
-0.85 -59.00 393.70 
-0.05 -59.00 393.60 
0.70 -58.95 393.45 
1.40 -59.00 393.65 
2.20 -58.95 393.45 
2.85 -59.00 393.70 
3.70 -58.95 393.35 
4.45 -58.95 393.50 
5.20 -58.95 393.45 
5.95 -58.95 393.40 
6.80 -58.90 393.10 
7.50 -58.95 393.35 
8.40 -58.85 392.85 
9.10 -58.90 392.95 
9.95 -58.80 392.55 
10.75 -58.80 392.40 
11.60 -58.75 392.00 
12.30 -58.75 392.15 
13.10 -58.75 391.95 
13.85 -58.75 391.95 
14.60 -58.75 391.90 
15.35 -58.75 391.95 
16.10 -58.70 391.90 
16.85 -58.70 391.85 
17.50 -58.75 392.10 
18.25 -58.75 392.10 
19.00 -58.75 392.05 
19.75 -58.75 392.05 
20.50 -58.75 391.90 
21.20 -58.75 392.05 
21.95 -58.75 391.90 
22.75 -58.70 391.85 
23.45 -58.70 391.85 
24.20 -58.70 391.85 
24.90 -58.75 391.95 
25.60 -58.75 392.15 
26.35 -58.75 392.10 
27.05 -58.75 392.10 
27.75 -58.80 392.30 
28.45 -58.80 392.40 
29.15 -58.80 392.50 
29.85 -58.85 392.60 
30.55 -58.85 392.75 
31.30 -58.85 392.75 
32.00 -58.85 392.85 
32.65 -58.90 393.10 
33.35 -58.95 393.30 
34.00 -59.00 393.75 
34.75 -59.00 393.70 
35.55 -58.95 393.30 
36.25 -58.95 393.35 
36.90 -59.05 393.90 
38.10 -59.20 394.85 
38.75 -59.25 395.20 
39.45 -59.30 395.60 
40.20 -59.25 395.30 
40.85 -59.35 395.80 
42.05 -59.50 396.95 
42.70 -59.55 397.40 
43.50 -59.50 397.10 
44.20 -59.55 397.20 
45.00 -59.50 396.85 
45.85 -59.40 396.20 
50.05 -60.75 405.35 
50.60 -60.95 406.40 
63.40 -60.65 404.40 
64.20 -60.55 403.85 
64.90 -60.60 404.15 
69.95 -60.65 404.35 
72.90 -60.60 403.85 
73.60 -60.60 403.95 
74.35 -60.60 403.90 
75.05 -60.60 404.00 
75.75 -60.60 404.15 
76.55 -60.55 403.65 
77.35 -60.40 402.65 
78.00 -60.50 403.30 
78.65 -60.60 404.10 
79.45 -60.55 403.55 
81.55 -60.65 404.20 
84.40 -60.70 404.55 
85.20 -60.55 403.55 
85.95 -60.50 403.25 
86.75 -60.35 402.35 
89.50 -60.55 403.65 
90.30 -60.45 403.00 
91.00 -60.45 402.85 
96.65 -60.60 403.85 
97.45 -60.50 403.15 
98.15 -60.45 402.95 
100.25 -60.65 404.05 
101.00 -60.55 403.40 
101.70 -60.55 403.40 
102.45 -60.55 403.30 
103.15 -60.55 403.30 
103.85 -60.50 403.20 
104.60 -60.45 402.70 
105.30 -60.45 402.85 
106.70 -60.60 403.55 
107.45 -60.45 402.80 
108.15 -60.50 402.90 
108.85 -60.45 402.80 
111.70 -60.65 404.05 
113.85 -60.55 403.15 
118.15 -60.70 404.20 
136.00 -60.60 403.50 
136.65 -60.50 402.85 
138.10 -60.55 403.15 
140.25 -60.50 402.85 
140.95 -60.55 403.05 
141.65 -60.50 402.75 
142.35 -60.45 402.60 
143.05 -60.40 402.10 
151.80 -60.60 403.55 
153.25 -60.60 403.35 
156.10 -60.55 403.05 
156.85 -60.60 403.35 
-126.50 -60.65 407.35 
-124.90 -60.50 406.35 
-124.50 -60.60 407.25 
-123.80 -60.70 407.75 
-122.50 -60.60 407.10 
-121.45 -60.60 407.05 
-120.55 -60.60 407.15 
-120.20 -60.75 408.15 
-119.00 -60.70 407.70 
-118.60 -60.85 408.80 
-117.65 -60.85 408.75 
-117.30 -61.00 409.80 
-115.85 -60.85 408.95 
-112.75 -60.55 406.95 
-111.15 -60.40 405.80 
-110.70 -60.50 406.60 
-109.40 -60.40 405.95 
-108.30 -60.35 405.75 
-107.70 -60.45 406.30 
-106.45 -60.35 405.75 
-105.80 -60.45 406.30 
-104.55 -60.35 405.65 
-103.80 -60.40 406.00 
-102.90 -60.65 407.80 
-102.40 -60.80 408.60 
-100.90 -60.65 407.50 
-100.65 -60.80 408.80 
-99.15 -60.65 407.70 
-97.00 -60.30 405.35 
-95.85 -60.25 405.00 
-94.70 -60.15 404.55 
-94.10 -60.25 405.05 
-93.15 -60.25 405.00 
-92.40 -60.30 405.35 
-91.20 -60.20 404.80 
-90.65 -60.30 405.45 
-89.25 -60.40 406.30 
-85.55 -60.15 404.35 
-83.50 -60.30 405.50 
-82.20 -60.15 404.65 
-81.25 -60.15 404.60 
-80.10 -60.10 404.05 
-75.60 -60.05 403.85 
-74.75 -60.05 403.90 
-69.40 -60.30 405.55 
-68.55 -60.30 405.50 
-67.35 -60.15 404.80 
-67.05 -60.35 406.10 
-54.85 -60.00 403.65 
-53.80 -59.90 403.10 
-48.35 -58.55 394.20 
-47.40 -58.55 394.00 
-46.55 -58.50 393.90 
-45.85 -58.55 394.10 
-45.00 -58.55 394.05 
-44.20 -58.55 394.15 
-43.40 -58.55 394.15 
-42.55 -58.55 394.00 
-41.75 -58.55 394.10 
-41.00 -58.55 394.20 
-40.25 -58.60 394.35 
-39.45 -58.60 394.40 
-38.65 -58.60 394.40 
-37.90 -58.60 394.55 
-37.10 -58.60 394.60 
-36.25 -58.60 394.45 
-35.50 -58.60 394.60 
-34.80 -58.65 394.85 
-34.10 -58.70 395.05 
-33.30 -58.70 395.10 
-32.50 -58.70 395.10 
-31.75 -58.70 395.25 
-31.00 -58.70 395.30 
-30.15 -58.70 395.30 
-29.40 -58.70 395.40 
-28.65 -58.75 395.50 
-27.85 -58.75 395.45 
-27.05 -58.75 395.50 
-26.20 -58.70 395.35 
-25.40 -58.70 395.25 
-24.70 -58.75 395.50 
-23.95 -58.75 395.60 
-23.10 -58.75 395.45 
-22.35 -58.75 395.60 
-21.45 -58.70 395.25 
-20.65 -58.70 395.20 
-19.80 -58.65 395.00 
-19.05 -58.65 395.05 
-18.20 -58.65 394.85 
-17.40 -58.65 394.80 
-16.60 -58.60 394.70 
-15.75 -58.60 394.65 
-14.90 -58.55 394.35 
-14.05 -58.55 394.20 
-13.25 -58.50 394.10 
-12.40 -58.50 393.90 
-11.65 -58.50 393.95 
-10.80 -58.45 393.65 
-9.90 -58.40 393.30 
-9.20 -58.40 393.45 
-8.40 -58.40 393.45 
-7.65 -58.40 393.45 
-6.90 -58.45 393.50 
-6.05 -58.40 393.25 
-5.25 -58.40 393.15 
-4.60 -58.45 393.45 
-3.80 -58.40 393.30 
-3.05 -58.40 393.35 
-2.35 -58.45 393.50 
-1.60 -58.45 393.60 
-0.75 -58.40 393.35 
-0.05 -58.45 393.55 
0.70 -58.40 393.35 
1.45 -58.40 393.40 
2.25 -58.40 393.25 
2.90 -58.45 393.50 
3.75 -58.40 393.25 
4.45 -58.45 393.55 
5.20 -58.40 393.35 
6.00 -58.40 393.35 
6.75 -58.40 393.30 
7.45 -58.45 393.50 
8.30 -58.40 393.30 
9.05 -58.35 393.10 
9.85 -58.35 392.90 
10.70 -58.30 392.60 
11.45 -58.30 392.55 
12.20 -58.30 392.50 
13.00 -58.25 392.20 
13.85 -58.20 392.00 
14.55 -58.20 392.05 
15.30 -58.20 392.00 
16.10 -58.20 391.85 
16.85 -58.20 391.85 
17.55 -58.20 392.05 
18.25 -58.25 392.15 
19.00 -58.25 392.10 
19.75 -58.20 392.10 
20.50 -58.20 392.00 
21.20 -58.20 392.10 
21.90 -58.25 392.10 
22.70 -58.20 392.00 
23.45 -58.20 391.80 
24.25 -58.15 391.70 
24.95 -58.20 391.85 
25.60 -58.20 392.10 
26.35 -58.20 392.05 
27.10 -58.25 392.10 
27.80 -58.25 392.15 
28.50 -58.25 392.30 
29.20 -58.25 392.25 
29.95 -58.25 392.25 
30.65 -58.25 392.30 
31.40 -58.25 392.30 
32.10 -58.30 392.40 
32.85 -58.25 392.35 
33.50 -58.30 392.55 
34.15 -58.35 393.00 
34.90 -58.35 392.95 
35.60 -58.40 393.10 
36.30 -58.40 393.10 
37.00 -58.40 393.25 
37.65 -58.50 393.75 
38.30 -58.50 393.95 
39.00 -58.50 394.00 
39.70 -58.55 394.25 
40.40 -58.60 394.40 
41.10 -58.60 394.45 
41.75 -58.65 394.90 
43.75 -58.80 396.00 
44.40 -58.85 396.15 
45.20 -58.80 395.75 
45.95 -58.75 395.50 
46.65 -58.80 395.85 
50.15 -58.90 396.35 
51.00 -58.80 395.85 
51.80 -58.70 395.25 
59.00 -58.70 395.00 
63.30 -60.20 405.15 
64.30 -59.95 403.40 
64.95 -60.00 403.65 
69.95 -60.15 404.60 
72.90 -60.05 403.90 
73.65 -60.00 403.80 
74.35 -60.00 403.65 
75.10 -60.00 403.65 
75.75 -60.05 404.15 
76.55 -60.00 403.70 
77.30 -59.90 403.10 
78.65 -60.10 404.25 
79.45 -60.00 403.55 
80.85 -60.00 403.70 
84.40 -60.15 404.50 
85.20 -60.05 403.75 
85.95 -59.90 402.85 
86.75 -59.85 402.40 
88.80 -60.00 403.70 
89.55 -59.90 403.00 
90.25 -59.95 403.25 
91.00 -59.95 403.15 
94.55 -60.00 403.50 
96.65 -60.05 403.90 
97.40 -60.05 403.75 
100.25 -60.15 404.30 
101.00 -60.00 403.40 
101.70 -60.00 403.50 
102.45 -60.00 403.25 
103.15 -59.95 402.90 
103.85 -59.95 403.05 
104.60 -59.95 402.95 
105.30 -59.95 402.95 
106.00 -59.90 402.55 
106.75 -59.95 402.95 
107.45 -59.95 403.05 
108.15 -59.95 402.85 
108.90 -59.85 402.40 
113.85 -60.10 403.90 
114.55 -59.85 402.40 
133.15 -60.10 403.90 
136.00 -60.10 403.75 
136.70 -60.00 403.25 
137.35 -59.95 402.70 
138.10 -60.00 403.15 
138.75 -59.75 401.30 
141.65 -59.95 402.90 
142.35 -59.90 402.50 
143.05 -59.85 402.20 
143.80 -59.90 402.45 
150.35 -59.95 402.85 
151.05 -59.90 402.55 
156.75 -59.90 402.50 
-126.25 -60.05 406.95 
-124.95 -59.95 406.35 
-124.55 -60.05 407.30 
-123.65 -60.10 407.50 
-122.50 -60.05 407.10 
-121.40 -60.00 406.95 
-120.30 -60.00 406.70 
-120.40 -60.25 408.55 
-119.20 -60.20 408.15 
-118.50 -60.25 408.55 
-117.80 -60.30 409.00 
-117.30 -60.45 409.85 
-115.80 -60.30 408.90 
-112.30 -59.90 406.10 
-111.10 -59.80 405.70 
-110.45 -59.90 406.15 
-109.30 -59.85 405.80 
-108.35 -59.85 405.80 
-107.65 -59.90 406.20 
-106.45 -59.85 405.80 
-105.50 -59.80 405.75 
-104.70 -59.85 406.00 
-103.85 -59.90 406.15 
-103.10 -59.90 406.50 
-102.55 -60.05 407.20 
-102.00 -60.15 407.90 
-100.90 -60.05 407.55 
-100.40 -60.20 408.35 
-96.80 -59.70 405.00 
-95.95 -59.70 405.20 
-94.80 -59.65 404.70 
-94.00 -59.70 404.90 
-93.20 -59.70 405.10 
-92.40 -59.75 405.40 
-91.40 -59.70 405.20 
-90.65 -59.75 405.45 
-89.60 -59.70 405.20 
-89.50 -59.95 406.75 
-87.30 -59.80 405.95 
-85.95 -59.70 405.05 
-83.25 -59.70 405.10 
-82.15 -59.60 404.65 
-81.30 -59.65 404.75 
-80.25 -59.60 404.35 
-76.65 -59.55 404.25 
-75.50 -59.45 403.70 
-74.65 -59.45 403.70 
-73.70 -59.45 403.60 
-72.90 -59.45 403.75 
-69.45 -59.75 405.70 
-68.80 -59.80 406.15 
-67.65 -59.70 405.45 
-56.75 -59.50 404.05 
-55.85 -59.50 404.00 
-54.85 -59.40 403.55 
-48.30 -58.00 394.15 
-47.40 -58.00 393.95 
-46.60 -58.00 393.95 
-45.80 -58.00 394.10 
-45.00 -58.00 394.05 
-44.20 -58.00 394.15 
-43.40 -58.00 394.20 
-42.65 -58.05 394.30 
-41.85 -58.05 394.35 
-41.00 -58.05 394.25 
-40.20 -58.05 394.25 
-39.45 -58.05 394.45 
-38.65 -58.05 394.45 
-37.90 -58.10 394.60 
-37.15 -58.10 394.65 
-36.30 -58.10 394.60 
-35.45 -58.05 394.45 
-34.80 -58.10 394.85 
-34.05 -58.15 395.00 
-33.30 -58.15 395.05 
-32.50 -58.15 395.10 
-31.80 -58.20 395.35 
-30.95 -58.15 395.25 
-30.15 -58.20 395.30 
-29.40 -58.15 395.30 
-28.70 -58.20 395.55 
-27.90 -58.20 395.55 
-27.10 -58.20 395.60 
-26.30 -58.20 395.55 
-25.45 -58.20 395.45 
-24.70 -58.20 395.55 
-23.95 -58.20 395.55 
-23.05 -58.20 395.40 
-22.35 -58.20 395.65 
-21.50 -58.20 395.45 
-20.65 -58.15 395.25 
-19.85 -58.15 395.15 
-19.05 -58.15 395.10 
-18.25 -58.10 395.00 
-17.40 -58.10 394.85 
-16.65 -58.10 394.90 
-15.80 -58.10 394.70 
-14.95 -58.05 394.50 
-14.10 -58.05 394.40 
-13.25 -58.00 394.15 
-12.50 -58.00 394.10 
-11.65 -57.95 393.95 
-10.85 -57.95 393.85 
-10.00 -57.90 393.55 
-9.20 -57.90 393.50 
-8.45 -57.90 393.55 
-7.65 -57.90 393.50 
-6.90 -57.90 393.50 
-6.10 -57.85 393.30 
-5.30 -57.85 393.20 
-4.50 -57.85 393.20 
-3.70 -57.85 393.10 
-3.00 -57.85 393.20 
-2.30 -57.90 393.50 
-1.50 -57.90 393.45 
-0.75 -57.85 393.35 
-0.05 -57.90 393.45 
0.75 -57.85 393.20 
1.50 -57.85 393.30 
2.30 -57.80 393.00 
3.00 -57.85 393.20 
3.80 -57.85 393.05 
4.55 -57.85 393.10 
5.30 -57.85 393.20 
6.00 -57.85 393.30 
6.70 -57.90 393.55 
7.45 -57.90 393.55 
8.25 -57.90 393.35 
9.05 -57.85 393.10 
9.85 -57.85 393.05 
10.65 -57.80 392.70 
11.45 -57.75 392.60 
12.20 -57.75 392.60 
12.90 -57.75 392.60 
13.75 -57.70 392.30 
14.45 -57.75 392.55 
15.20 -57.75 392.40 
16.05 -57.70 392.20 
16.80 -57.70 392.10 
17.45 -57.75 392.35 
18.25 -57.70 392.20 
18.95 -57.70 392.25 
19.70 -57.70 392.10 
20.45 -57.70 392.05 
21.15 -57.70 392.25 
21.90 -57.70 392.20 
22.65 -57.70 392.20 
23.45 -57.65 391.90 
24.20 -57.65 391.85 
24.95 -57.65 391.85 
25.65 -57.65 391.95 
26.40 -57.65 391.80 
27.10 -57.70 392.05 
27.85 -57.65 391.85 
28.55 -57.70 392.15 
29.25 -57.70 392.05 
30.00 -57.70 392.05 
30.75 -57.70 392.00 
31.45 -57.70 392.05 
32.20 -57.70 392.00 
32.90 -57.70 392.00 
33.60 -57.70 392.20 
34.30 -57.75 392.30 
35.00 -57.75 392.40 
35.65 -57.80 392.75 
36.40 -57.80 392.75 
37.05 -57.85 393.10 
37.70 -57.90 393.35 
38.45 -57.85 393.20 
39.15 -57.90 393.35 
39.85 -57.90 393.55 
40.55 -57.95 393.65 
41.30 -57.95 393.60 
42.00 -57.90 393.55 
42.70 -57.95 393.70 
43.30 -58.05 394.40 
43.95 -58.10 394.90 
44.60 -58.15 395.25 
45.30 -58.20 395.35 
46.00 -58.20 395.35 
46.80 -58.15 395.00 
47.40 -58.25 395.60 
48.75 -58.30 396.20 
49.45 -58.35 396.40 
50.15 -58.35 396.25 
50.95 -58.30 396.05 
51.75 -58.25 395.60 
55.00 -58.55 397.75 
55.80 -58.50 397.35 
58.20 -58.20 395.40 
64.15 -59.55 404.40 
64.95 -59.40 403.55 
69.95 -59.55 404.30 
72.85 -59.55 404.25 
73.65 -59.50 403.85 
74.35 -59.45 403.60 
75.10 -59.45 403.75 
75.75 -59.50 404.10 
76.55 -59.50 403.90 
77.25 -59.45 403.55 
80.10 -59.55 404.35 
80.80 -59.55 404.40 
84.40 -59.60 404.50 
85.20 -59.45 403.60 
85.95 -59.40 403.10 
86.70 -59.35 402.70 
88.80 -59.45 403.60 
90.25 -59.45 403.40 
90.95 -59.45 403.55 
91.65 -59.50 403.75 
93.15 -59.40 403.10 
94.50 -59.55 404.05 
96.70 -59.45 403.60 
100.25 -59.60 404.30 
103.15 -59.45 403.40 
103.85 -59.35 402.85 
104.55 -59.45 403.20 
105.30 -59.40 402.95 
106.00 -59.35 402.75 
106.75 -59.40 402.85 
107.45 -59.45 403.30 
108.20 -59.30 402.45 
108.85 -59.35 402.70 
109.60 -59.35 402.80 
113.10 -59.60 404.25 
113.85 -59.45 403.25 
114.55 -59.50 403.55 
116.70 -59.60 404.20 
118.15 -59.40 403.00 
136.00 -59.50 403.40 
136.70 -59.40 402.85 
137.40 -59.40 402.85 
138.15 -59.50 403.60 
138.80 -59.30 402.20 
139.50 -59.30 402.15 
140.95 -59.40 402.90 
145.30 -59.40 402.65 
151.75 -59.40 402.65 
152.45 -59.40 402.60 
156.75 -59.35 402.45 
-126.30 -59.45 406.95 
-124.90 -59.40 406.35 
-124.40 -59.50 407.10 
-123.60 -59.55 407.40 
-122.55 -59.50 407.25 
-121.30 -59.45 406.80 
-120.15 -59.40 406.45 
-120.10 -59.60 408.00 
-119.25 -59.65 408.20 
-118.60 -59.70 408.75 
-117.70 -59.75 408.85 
-117.10 -59.80 409.40 
-115.95 -59.80 409.15 
-113.60 -59.40 406.75 
-111.85 -59.20 405.35 
-111.35 -59.35 406.15 
-110.50 -59.35 406.30 
-109.30 -59.30 405.85 
-108.50 -59.30 406.05 
-107.70 -59.35 406.30 
-106.45 -59.30 405.80 
-105.45 -59.25 405.65 
-104.60 -59.25 405.75 
-103.80 -59.30 406.05 
-103.05 -59.35 406.35 
-102.10 -59.35 406.35 
-101.15 -59.35 406.30 
-98.05 -59.25 405.65 
-96.85 -59.15 405.10 
-95.80 -59.15 404.90 
-94.80 -59.10 404.75 
-94.05 -59.15 405.00 
-92.95 -59.10 404.65 
-92.50 -59.20 405.60 
-91.30 -59.15 405.00 
-90.70 -59.20 405.60 
-89.85 -59.25 405.70 
-89.35 -59.35 406.50 
-87.80 -59.15 405.15 
-86.90 -59.15 405.15 
-85.95 -59.15 405.10 
-83.35 -59.15 405.30 
-82.15 -59.05 404.60 
-81.25 -59.05 404.60 
-80.25 -59.05 404.40 
-78.90 -58.90 403.40 
-75.45 -58.90 403.55 
-74.60 -58.90 403.65 
-73.65 -58.90 403.50 
-73.00 -58.95 403.95 
-71.95 -58.90 403.60 
-71.35 -59.00 404.15 
-68.90 -59.30 406.35 
-56.60 -58.90 403.80 
-55.20 -59.00 404.40 
-48.30 -57.50 394.20 
-47.40 -57.45 393.95 
-46.60 -57.45 394.00 
-45.80 -57.45 394.00 
-44.95 -57.45 393.95 
-44.30 -57.50 394.35 
-43.40 -57.50 394.20 
-42.65 -57.50 394.35 
-41.90 -57.50 394.40 
-41.00 -57.50 394.30 
-40.25 -57.50 394.40 
-39.50 -57.55 394.60 
-38.65 -57.55 394.50 
-37.95 -57.55 394.70 
-37.10 -57.55 394.60 
-36.35 -57.55 394.70 
-35.45 -57.55 394.50 
-34.80 -57.60 394.95 
-34.05 -57.60 395.00 
-33.25 -57.60 395.05 
-32.45 -57.60 395.05 
-31.75 -57.65 395.30 
-30.95 -57.65 395.20 
-30.10 -57.60 395.15 
-29.40 -57.65 395.35 
-28.70 -57.70 395.60 
-27.85 -57.65 395.55 
-27.05 -57.65 395.45 
-26.30 -57.70 395.65 
-25.50 -57.65 395.55 
-24.70 -57.65 395.55 
-23.95 -57.70 395.60 
-23.10 -57.65 395.55 
-22.30 -57.65 395.50 
-21.55 -57.65 395.60 
-20.70 -57.65 395.35 
-19.85 -57.60 395.25 
-19.10 -57.60 395.25 
-18.30 -57.60 395.25 
-17.45 -57.60 395.05 
-16.70 -57.60 395.10 
-15.80 -57.55 394.80 
-14.95 -57.50 394.60 
-14.15 -57.50 394.50 
-13.30 -57.45 394.20 
-12.55 -57.45 394.25 
-11.65 -57.45 393.95 
-10.90 -57.45 394.00 
-10.10 -57.40 393.85 
-9.30 -57.40 393.75 
-8.50 -57.40 393.70 
-7.65 -57.35 393.50 
-6.90 -57.35 393.55 
-6.15 -57.35 393.45 
-5.30 -57.35 393.30 
-4.50 -57.30 393.15 
-3.70 -57.30 393.00 
-2.95 -57.30 393.10 
-2.25 -57.35 393.30 
-1.50 -57.35 393.45 
-0.70 -57.30 393.25 
-0.05 -57.35 393.50 
0.75 -57.30 393.25 
1.55 -57.30 393.15 
2.30 -57.30 393.10 
3.00 -57.30 393.20 
3.85 -57.30 392.95 
4.60 -57.30 392.95 
5.35 -57.30 392.95 
6.10 -57.30 393.10 
6.70 -57.35 393.45 
7.55 -57.35 393.25 
8.35 -57.30 393.10 
9.05 -57.30 393.20 
9.85 -57.30 392.95 
10.70 -57.25 392.70 
11.55 -57.20 392.25 
12.25 -57.20 392.40 
12.85 -57.25 392.80 
13.75 -57.20 392.40 
14.35 -57.25 392.90 
15.20 -57.25 392.55 
15.90 -57.25 392.70 
16.70 -57.20 392.45 
17.40 -57.20 392.55 
18.20 -57.20 392.25 
18.95 -57.20 392.35 
19.70 -57.20 392.30 
20.40 -57.20 392.30 
21.15 -57.20 392.30 
21.90 -57.20 392.30 
22.60 -57.20 392.40 
23.40 -57.20 392.20 
24.10 -57.15 392.20 
24.90 -57.15 392.10 
25.65 -57.15 391.90 
26.40 -57.10 391.80 
27.10 -57.15 392.00 
27.85 -57.15 391.95 
28.55 -57.15 392.00 
29.25 -57.15 392.05 
30.05 -57.15 391.90 
30.75 -57.15 392.05 
31.50 -57.15 391.95 
32.25 -57.10 391.70 
32.95 -57.15 391.85 
33.60 -57.20 392.15 
34.35 -57.15 392.10 
35.05 -57.20 392.25 
35.80 -57.20 392.25 
36.50 -57.20 392.35 
37.15 -57.25 392.70 
37.85 -57.25 392.65 
38.55 -57.30 392.90 
39.20 -57.30 393.00 
39.95 -57.30 393.05 
40.60 -57.35 393.25 
41.35 -57.35 393.25 
42.10 -57.35 393.10 
42.80 -57.35 393.20 
43.45 -57.40 393.55 
44.15 -57.45 393.90 
44.80 -57.50 394.15 
45.55 -57.45 394.10 
46.15 -57.55 394.50 
46.90 -57.50 394.35 
47.60 -57.50 394.40 
48.25 -57.60 394.90 
48.95 -57.65 395.20 
49.60 -57.70 395.50 
50.30 -57.70 395.60 
51.05 -57.70 395.60 
51.80 -57.65 395.40 
52.50 -57.65 395.30 
53.20 -57.70 395.50 
53.80 -57.80 396.35 
54.40 -57.90 396.95 
55.05 -57.95 397.40 
55.75 -58.00 397.50 
56.65 -57.85 396.45 
64.15 -58.95 404.25 
64.80 -59.05 404.90 
72.90 -58.95 403.85 
73.65 -58.90 403.55 
75.75 -59.00 404.35 
76.50 -59.00 404.30 
77.30 -58.90 403.45 
83.10 -58.85 403.15 
85.20 -58.95 403.85 
85.95 -58.90 403.50 
86.70 -58.85 403.05 
88.80 -58.95 403.80 
90.95 -58.95 403.85 
91.70 -58.85 403.20 
95.25 -58.90 403.40 
96.00 -58.90 403.35 
96.75 -58.85 403.00 
100.25 -58.95 403.80 
101.70 -58.90 403.40 
102.40 -58.90 403.50 
103.15 -58.85 403.05 
103.85 -58.85 402.95 
104.55 -58.95 403.85 
105.30 -58.85 402.95 
106.00 -58.85 402.95 
106.75 -58.85 402.90 
107.45 -58.85 403.05 
108.20 -58.75 402.35 
108.85 -58.85 403.05 
109.55 -58.90 403.15 
110.30 -59.00 403.80 
113.10 -59.05 404.20 
113.85 -59.05 404.25 
114.55 -59.00 403.95 
117.40 -58.75 402.35 
118.15 -58.80 402.45 
125.95 -58.85 402.95 
135.95 -58.85 402.65 
137.40 -59.00 403.65 
142.40 -58.90 402.90 
143.80 -58.85 402.65 
150.40 -58.90 403.20 
151.05 -58.85 402.65 
151.75 -58.85 402.55 
152.45 -58.80 402.30 
-126.25 -58.90 406.90 
-125.15 -58.90 406.75 
-124.40 -58.95 407.05 
-123.55 -58.95 407.35 
-122.55 -58.95 407.25 
-121.50 -58.95 407.10 
-120.50 -58.95 407.05 
-119.65 -58.95 407.30 
-118.95 -59.00 407.70 
-118.50 -59.15 408.60 
-117.85 -59.20 409.05 
-116.90 -59.25 409.15 
-115.70 -59.15 408.65 
-113.15 -58.75 405.95 
-111.85 -58.65 405.35 
-111.30 -58.75 406.00 
-110.55 -58.80 406.35 
-109.80 -58.85 406.75 
-108.40 -58.75 405.90 
-107.80 -58.85 406.50 
-106.50 -58.75 405.85 
-105.35 -58.70 405.50 
-104.25 -58.65 405.15 
-103.70 -58.75 405.90 
-102.60 -58.70 405.60 
-102.00 -58.75 406.20 
-101.00 -58.75 405.95 
-99.80 -58.65 405.50 
-98.75 -58.65 405.30 
-97.75 -58.60 405.15 
-96.80 -58.60 405.05 
-95.85 -58.60 405.00 
-94.70 -58.50 404.50 
-94.05 -58.60 405.05 
-93.00 -58.55 404.75 
-92.30 -58.60 405.20 
-91.30 -58.60 404.95 
-90.80 -58.70 405.80 
-90.25 -58.80 406.40 
-88.95 -58.70 405.70 
-87.50 -58.55 404.65 
-86.80 -58.60 405.00 
-85.75 -58.55 404.65 
-84.75 -58.50 404.55 
-84.10 -58.55 404.95 
-83.45 -58.65 405.50 
-82.20 -58.55 404.75 
-81.20 -58.50 404.55 
-80.20 -58.45 404.25 
-79.25 -58.45 404.20 
-78.45 -58.45 404.30 
-75.55 -58.40 403.80 
-74.55 -58.35 403.55 
-73.80 -58.40 403.75 
-73.00 -58.40 403.95 
-72.25 -58.45 404.15 
-71.30 -58.40 404.00 
-55.75 -58.35 403.80 
-48.35 -56.95 394.25 
-47.45 -56.95 394.05 
-46.60 -56.95 394.05 
-45.80 -56.95 394.00 
-45.00 -56.95 394.10 
-44.30 -57.00 394.40 
-43.45 -56.95 394.25 
-42.70 -57.00 394.40 
-41.90 -57.00 394.45 
-41.05 -57.00 394.45 
-40.30 -57.00 394.50 
-39.50 -57.00 394.55 
-38.65 -57.00 394.45 
-37.95 -57.00 394.70 
-37.10 -57.00 394.60 
-36.35 -57.05 394.75 
-35.55 -57.05 394.75 
-34.85 -57.05 394.95 
-34.05 -57.05 394.95 
-33.25 -57.05 395.00 
-32.45 -57.05 395.05 
-31.75 -57.10 395.25 
-30.95 -57.10 395.25 
-30.10 -57.10 395.20 
-29.35 -57.10 395.25 
-28.65 -57.10 395.45 
-27.85 -57.10 395.45 
-27.05 -57.15 395.50 
-26.30 -57.15 395.65 
-25.55 -57.15 395.65 
-24.70 -57.15 395.50 
-23.95 -57.15 395.60 
-23.15 -57.15 395.70 
-22.35 -57.15 395.55 
-21.65 -57.15 395.80 
-20.80 -57.15 395.70 
-19.90 -57.10 395.35 
-19.15 -57.10 395.45 
-18.35 -57.10 395.35 
-17.55 -57.10 395.25 
-16.70 -57.05 395.10 
-15.85 -57.05 394.90 
-15.05 -57.05 394.85 
-14.20 -57.00 394.55 
-13.30 -56.95 394.25 
-12.60 -56.95 394.45 
-11.75 -56.95 394.25 
-10.95 -56.95 394.20 
-10.10 -56.90 394.00 
-9.30 -56.90 393.85 
-8.55 -56.90 393.85 
-7.65 -56.85 393.50 
-6.90 -56.80 393.45 
-6.10 -56.80 393.40 
-5.30 -56.80 393.25 
-4.55 -56.80 393.30 
-3.65 -56.75 392.95 
-2.95 -56.80 393.15 
-2.25 -56.80 393.30 
-1.50 -56.80 393.40 
-0.70 -56.80 393.30 
0.00 -56.80 393.40 
0.80 -56.75 393.10 
1.55 -56.75 393.10 
2.30 -56.75 393.10 
3.05 -56.75 393.05 
3.85 -56.75 392.90 
4.70 -56.70 392.65 
5.45 -56.70 392.60 
6.15 -56.70 392.75 
6.85 -56.75 393.05 
7.70 -56.70 392.70 
8.40 -56.75 392.85 
9.00 -56.80 393.30 
9.90 -56.75 392.85 
10.65 -56.70 392.75 
11.55 -56.65 392.25 
12.30 -56.65 392.15 
12.90 -56.70 392.70 
13.75 -56.65 392.40 
14.40 -56.75 392.80 
15.20 -56.65 392.40 
15.85 -56.75 392.85 
16.65 -56.70 392.70 
17.35 -56.75 392.80 
18.15 -56.70 392.65 
18.85 -56.70 392.70 
19.55 -56.75 392.90 
20.35 -56.70 392.50 
21.10 -56.70 392.55 
21.85 -56.70 392.50 
22.65 -56.65 392.25 
23.35 -56.65 392.35 
24.15 -56.65 392.20 
24.85 -56.65 392.20 
25.60 -56.65 392.10 
26.35 -56.65 392.05 
27.15 -56.60 391.85 
27.80 -56.60 392.00 
28.55 -56.65 392.05 
29.30 -56.60 392.00 
30.05 -56.60 391.85 
30.75 -56.60 391.85 
31.50 -56.60 391.85 
32.25 -56.60 391.70 
32.95 -56.60 391.85 
33.65 -56.65 392.05 
34.40 -56.60 392.00 
35.05 -56.65 392.25 
35.80 -56.65 392.10 
36.50 -56.65 392.20 
37.20 -56.65 392.30 
37.95 -56.65 392.10 
38.65 -56.70 392.35 
39.35 -56.70 392.45 
40.00 -56.75 392.80 
40.70 -56.75 392.85 
41.45 -56.75 392.90 
42.15 -56.75 393.00 
42.85 -56.75 392.95 
43.55 -56.80 393.15 
44.25 -56.85 393.40 
44.95 -56.85 393.35 
45.65 -56.85 393.55 
46.30 -56.90 393.75 
47.05 -56.85 393.65 
47.75 -56.85 393.65 
48.45 -56.90 393.65 
49.15 -56.90 393.95 
49.75 -57.00 394.60 
50.40 -57.05 394.95 
51.10 -57.10 395.15 
51.85 -57.10 395.05 
52.55 -57.05 395.00 
53.25 -57.10 395.10 
53.95 -57.15 395.45 
54.60 -57.20 395.75 
55.30 -57.20 395.95 
56.00 -57.20 395.95 
56.65 -57.25 396.30 
57.40 -57.25 396.00 
58.10 -57.25 396.05 
58.80 -57.25 396.25 
59.50 -57.30 396.50 
60.20 -57.30 396.55 
60.80 -57.40 397.35 
61.70 -57.25 396.05 
64.20 -58.40 404.05 
64.80 -58.50 404.90 
65.60 -58.45 404.30 
72.95 -58.35 403.60 
73.70 -58.35 403.50 
76.55 -58.40 403.95 
77.25 -58.35 403.75 
83.05 -58.35 403.50 
83.70 -58.40 404.05 
86.65 -58.35 403.65 
88.80 -58.40 403.65 
90.95 -58.35 403.50 
91.70 -58.30 403.00 
92.40 -58.35 403.30 
93.10 -58.40 403.60 
95.25 -58.40 403.90 
100.30 -58.30 403.10 
101.00 -58.35 403.25 
101.70 -58.40 403.65 
102.45 -58.35 403.35 
103.15 -58.35 403.30 
103.85 -58.35 403.15 
104.55 -58.35 403.25 
105.30 -58.30 402.80 
106.00 -58.30 403.05 
106.75 -58.35 403.20 
107.45 -58.30 402.85 
111.00 -58.35 403.10 
114.55 -58.45 403.80 
116.70 -58.50 404.10 
125.30 -58.40 403.60 
125.95 -58.25 402.40 
126.70 -58.35 403.05 
137.45 -58.55 404.50 
142.40 -58.30 402.70 
144.55 -58.30 402.85 
145.30 -58.25 402.30 
150.40 -58.35 403.10 
151.80 -58.35 403.10 
152.50 -58.30 402.60 
-126.30 -58.40 407.05 
-125.10 -58.35 406.70 
-124.25 -58.35 406.85 
-123.20 -58.35 406.70 
-122.50 -58.40 407.15 
-121.70 -58.45 407.50 
-120.40 -58.35 406.85 
-119.95 -58.50 407.75 
-118.95 -58.45 407.70 
-118.75 -58.65 409.05 
-117.85 -58.65 409.10 
-117.25 -58.75 409.75 
-114.40 -58.30 406.45 
-113.10 -58.20 405.90 
-112.05 -58.15 405.70 
-111.15 -58.20 405.80 
-110.30 -58.20 405.90 
-109.70 -58.30 406.55 
-108.25 -58.15 405.65 
-107.45 -58.20 405.90 
-106.75 -58.25 406.30 
-105.35 -58.15 405.45 
-104.35 -58.10 405.35 
-103.50 -58.10 405.50 
-102.35 -58.05 405.15 
-102.00 -58.20 406.20 
-100.90 -58.15 405.80 
-99.80 -58.10 405.50 
-98.65 -58.05 405.10 
-97.55 -58.00 404.75 
-96.90 -58.05 405.20 
-96.05 -58.10 405.40 
-94.80 -58.00 404.70 
-94.05 -58.05 405.05 
-93.10 -58.05 404.90 
-92.30 -58.05 405.15 
-90.95 -58.20 406.10 
-90.10 -58.20 406.15 
-88.60 -58.05 404.95 
-87.45 -57.95 404.45 
-86.65 -58.00 404.70 
-85.60 -57.95 404.40 
-85.00 -58.05 405.00 
-81.10 -57.95 404.35 
-80.20 -57.90 404.30 
-79.35 -57.90 404.35 
-78.25 -57.85 403.95 
-75.80 -57.90 404.35 
-74.60 -57.80 403.60 
-73.80 -57.85 403.75 
-72.95 -57.85 403.90 
-72.35 -57.95 404.45 
-71.40 -57.90 404.25 
-70.05 -57.75 403.25 
-65.45 -57.90 404.50 
-57.55 -57.85 404.00 
-56.25 -57.70 402.95 
-55.50 -57.70 403.15 
-48.35 -56.45 394.30 
-47.50 -56.40 394.20 
-46.60 -56.40 394.05 
-45.85 -56.40 394.20 
-45.05 -56.45 394.25 
-44.35 -56.45 394.50 
-43.50 -56.45 394.40 
-42.65 -56.45 394.35 
-41.85 -56.45 394.35 
-41.05 -56.45 394.40 
-40.20 -56.45 394.30 
-39.40 -56.45 394.35 
-38.65 -56.45 394.40 
-37.95 -56.50 394.65 
-37.15 -56.50 394.70 
-36.35 -56.50 394.75 
-35.60 -56.50 394.90 
-34.80 -56.50 394.85 
-34.00 -56.50 394.80 
-33.25 -56.55 395.00 
-32.50 -56.55 395.10 
-31.70 -56.55 395.20 
-30.95 -56.55 395.30 
-30.10 -56.55 395.15 
-29.35 -56.55 395.25 
-28.65 -56.60 395.50 
-27.85 -56.60 395.45 
-27.10 -56.60 395.60 
-26.30 -56.60 395.65 
-25.55 -56.60 395.70 
-24.70 -56.60 395.50 
-23.95 -56.60 395.60 
-23.10 -56.60 395.55 
-22.40 -56.65 395.80 
-21.65 -56.65 395.80 
-20.85 -56.65 395.75 
-20.05 -56.65 395.85 
-19.20 -56.60 395.60 
-18.40 -56.60 395.45 
-17.60 -56.55 395.40 
-16.75 -56.55 395.25 
-15.95 -56.55 395.20 
-15.05 -56.50 394.85 
-14.20 -56.45 394.65 
-13.40 -56.45 394.55 
-12.60 -56.45 394.50 
-11.80 -56.45 394.45 
-11.05 -56.45 394.45 
-10.15 -56.40 394.15 
-9.35 -56.35 393.95 
-8.55 -56.35 393.85 
-7.70 -56.30 393.60 
-6.90 -56.30 393.45 
-6.10 -56.30 393.35 
-5.25 -56.25 393.20 
-4.55 -56.25 393.35 
-3.70 -56.25 393.10 
-3.00 -56.25 393.30 
-2.25 -56.25 393.30 
-1.50 -56.25 393.35 
-0.75 -56.25 393.30 
0.00 -56.30 393.40 
0.80 -56.25 393.10 
1.60 -56.20 392.95 
2.40 -56.20 392.85 
3.10 -56.20 392.85 
3.90 -56.20 392.80 
4.70 -56.20 392.70 
5.55 -56.15 392.35 
6.25 -56.15 392.50 
7.00 -56.15 392.60 
7.70 -56.15 392.60 
8.45 -56.20 392.70 
9.10 -56.25 393.05 
9.90 -56.20 392.90 
10.65 -56.20 392.90 
11.50 -56.15 392.35 
12.40 -56.05 391.90 
13.05 -56.10 392.20 
13.80 -56.10 392.25 
14.40 -56.20 392.70 
15.25 -56.15 392.40 
15.90 -56.20 392.80 
16.65 -56.20 392.75 
17.35 -56.20 392.80 
18.10 -56.20 392.65 
18.85 -56.20 392.70 
19.50 -56.25 393.00 
20.30 -56.20 392.80 
20.95 -56.25 393.10 
21.80 -56.15 392.60 
22.60 -56.15 392.40 
23.35 -56.15 392.40 
24.10 -56.10 392.25 
24.80 -56.15 392.35 
25.55 -56.10 392.30 
26.40 -56.10 392.00 
27.10 -56.10 392.05 
27.80 -56.10 392.15 
28.55 -56.10 392.15 
29.30 -56.10 392.05 
30.00 -56.10 392.10 
30.75 -56.05 391.90 
31.50 -56.05 391.85 
32.25 -56.05 391.80 
32.95 -56.05 391.80 
33.65 -56.10 391.95 
34.40 -56.10 392.00 
35.10 -56.10 392.05 
35.85 -56.10 392.00 
36.50 -56.10 392.20 
37.30 -56.10 391.95 
38.00 -56.10 392.00 
38.75 -56.10 391.90 
39.45 -56.10 392.00 
40.10 -56.15 392.40 
40.80 -56.15 392.40 
41.50 -56.15 392.50 
42.20 -56.20 392.60 
42.95 -56.20 392.60 
43.60 -56.20 392.85 
44.35 -56.25 392.85 
45.05 -56.25 392.90 
45.70 -56.25 393.15 
46.45 -56.25 393.15 
47.10 -56.30 393.35 
47.85 -56.25 393.00 
48.55 -56.30 393.20 
49.25 -56.30 393.35 
49.85 -56.40 394.00 
50.55 -56.40 394.20 
51.20 -56.45 394.50 
51.95 -56.50 394.55 
52.65 -56.50 394.60 
53.35 -56.50 394.65 
54.00 -56.55 395.10 
54.75 -56.55 394.95 
55.40 -56.55 395.20 
56.10 -56.60 395.30 
56.80 -56.60 395.40 
57.55 -56.60 395.25 
58.25 -56.55 395.10 
58.90 -56.65 395.60 
59.50 -56.75 396.50 
60.25 -56.75 396.40 
60.90 -56.80 396.85 
61.60 -56.80 396.90 
62.40 -56.75 396.40 
65.50 -58.00 405.25 
72.95 -57.80 403.75 
73.70 -57.80 403.50 
77.20 -57.90 404.35 
78.05 -57.75 403.10 
78.75 -57.75 403.35 
79.50 -57.75 403.35 
80.20 -57.80 403.50 
83.05 -57.85 403.95 
90.25 -57.85 403.70 
91.00 -57.75 403.15 
93.10 -57.80 403.50 
101.00 -57.90 403.95 
101.75 -57.75 402.95 
102.45 -57.75 403.00 
103.85 -57.85 403.50 
104.55 -57.80 403.35 
105.30 -57.70 402.60 
106.00 -57.75 403.05 
106.75 -57.75 402.90 
107.45 -57.80 403.15 
108.20 -57.70 402.75 
111.00 -57.80 403.35 
113.85 -57.85 403.65 
116.70 -57.70 402.50 
124.60 -58.00 404.60 
125.25 -57.70 402.60 
125.95 -57.70 402.55 
127.40 -57.75 402.75 
135.95 -57.70 402.35 
137.45 -57.90 403.75 
139.55 -57.75 402.80 
140.20 -57.60 401.80 
141.65 -57.75 402.75 
142.40 -57.75 402.60 
143.05 -57.65 402.10 
143.80 -57.70 402.35 
144.55 -57.75 402.55 
145.30 -57.75 402.65 
146.00 -57.75 402.50 
146.75 -57.75 402.75 
150.40 -57.85 403.20 
156.10 -57.80 402.95 
-126.55 -57.90 407.45 
-124.80 -57.70 406.20 
-124.20 -57.80 406.75 
-122.25 -57.80 406.80 
-121.65 -57.85 407.40 
-120.40 -57.80 406.95 
-120.15 -57.95 408.10 
-118.95 -57.90 407.65 
-118.75 -58.10 409.05 
-117.80 -58.10 409.05 
-116.35 -58.00 408.20 
-114.15 -57.65 406.00 
-112.85 -57.60 405.45 
-112.00 -57.60 405.60 
-111.40 -57.70 406.20 
-110.05 -57.60 405.50 
-109.60 -57.70 406.40 
-108.30 -57.60 405.70 
-107.65 -57.70 406.25 
-106.95 -57.75 406.65 
-105.55 -57.65 405.90 
-104.50 -57.60 405.60 
-103.55 -57.60 405.65 
-102.55 -57.55 405.45 
-101.95 -57.65 406.15 
-100.95 -57.65 405.95 
-99.95 -57.60 405.80 
-98.70 -57.50 405.15 
-97.80 -57.55 405.20 
-96.80 -57.50 405.00 
-96.50 -57.65 406.20 
-95.00 -57.50 405.15 
-94.35 -57.60 405.60 
-93.05 -57.50 404.90 
-92.35 -57.55 405.25 
-91.30 -57.75 406.80 
-89.80 -57.55 405.60 
-88.65 -57.50 405.10 
-87.50 -57.40 404.60 
-86.55 -57.40 404.55 
-85.70 -57.45 404.65 
-84.80 -57.40 404.65 
-81.05 -57.35 404.25 
-79.95 -57.30 403.80 
-79.30 -57.35 404.25 
-78.25 -57.30 403.85 
-75.65 -57.30 404.00 
-74.60 -57.25 403.65 
-73.75 -57.25 403.65 
-73.30 -57.40 404.55 
-71.50 -57.40 404.50 
-70.25 -57.25 403.70 
-66.95 -57.30 403.95 
-66.20 -57.35 404.25 
-65.45 -57.40 404.55 
-62.05 -57.40 404.60 
-56.50 -57.25 403.60 
-49.80 -56.10 395.80 
-48.40 -55.90 394.40 
-47.50 -55.90 394.20 
-46.75 -55.90 394.35 
-45.95 -55.90 394.40 
-45.15 -55.90 394.45 
-44.40 -55.95 394.55 
-43.55 -55.95 394.55 
-42.70 -55.90 394.45 
-41.95 -55.95 394.55 
