ply
format ascii 1.0
element vertex 2230
property float x
property float y
property float z
end_header
-69.60 -59.70 339.35 
-69.00 -59.75 339.65 
-68.00 -59.65 339.25 
-67.35 -59.70 339.50 
-66.55 -59.70 339.50 
-65.85 -59.70 339.65 
-64.95 -59.65 339.35 
-64.10 -59.65 339.25 
-63.30 -59.65 339.15 
-62.50 -59.65 339.15 
-62.05 -59.75 339.75 
-61.25 -59.70 339.65 
-60.20 -59.60 339.10 
-59.60 -59.65 339.45 
-58.90 -59.70 339.55 
-58.15 -59.70 339.55 
-57.45 -59.70 339.70 
-56.55 -59.65 339.45 
-55.95 -59.70 339.75 
-55.20 -59.70 339.70 
-54.35 -59.70 339.50 
-53.35 -59.60 339.05 
-52.70 -59.65 339.30 
-52.15 -59.70 339.65 
-51.45 -59.70 339.75 
-50.45 -59.60 339.20 
-49.70 -59.60 339.20 
-49.15 -59.70 339.65 
-48.35 -59.70 339.55 
-47.85 -59.75 340.05 
-46.90 -59.70 339.65 
-46.30 -59.75 339.95 
-45.15 -59.60 339.10 
-44.35 -59.55 338.95 
-43.40 -59.50 338.50 
-42.90 -59.55 339.00 
-42.25 -59.60 339.10 
-41.45 -59.60 339.05 
-40.70 -59.55 339.00 
-40.10 -59.60 339.25 
-39.05 -59.50 338.55 
-38.55 -59.60 339.10 
-38.10 -59.70 339.65 
-37.10 -59.60 339.10 
-36.15 -59.50 338.60 
-35.55 -59.50 338.80 
-34.65 -59.45 338.45 
-33.85 -59.45 338.25 
-33.10 -59.40 338.20 
-32.45 -59.45 338.25 
-31.85 -59.50 338.55 
-30.95 -59.40 338.20 
-30.40 -59.45 338.55 
-29.70 -59.50 338.65 
-28.80 -59.40 338.10 
-28.05 -59.40 338.10 
-27.50 -59.45 338.40 
-26.75 -59.45 338.30 
-25.95 -59.40 338.15 
-25.10 -59.35 337.75 
-24.65 -59.45 338.35 
-23.85 -59.40 338.20 
-23.00 -59.35 337.80 
-22.30 -59.30 337.75 
-21.70 -59.35 338.00 
-20.85 -59.30 337.65 
-20.35 -59.40 338.10 
-19.80 -59.45 338.45 
-19.15 -59.50 338.65 
-18.40 -59.45 338.50 
-17.35 -59.30 337.60 
-16.95 -59.45 338.40 
-16.00 -59.30 337.70 
-15.05 -59.20 337.10 
-14.85 -59.40 338.25 
-14.05 -59.35 338.05 
-13.00 -59.50 338.80 
-12.00 -59.35 337.95 
-9.25 -59.35 337.95 
-8.40 -59.30 337.55 
-7.70 -59.25 337.50 
-6.85 -59.20 337.10 
-6.35 -59.30 337.55 
-5.70 -59.30 337.65 
-5.00 -59.25 337.50 
-4.20 -59.20 337.20 
-3.80 -59.35 338.00 
-2.90 -59.25 337.25 
-2.10 -59.20 337.05 
-1.55 -59.25 337.40 
-1.00 -59.30 337.75 
-0.15 -59.25 337.25 
0.60 -59.15 336.85 
2.45 -59.20 337.25 
3.20 -59.15 336.95 
3.65 -59.30 337.60 
4.60 -59.15 336.80 
5.10 -59.25 337.25 
7.45 -59.40 338.20 
8.30 -59.30 337.60 
9.25 -59.15 336.75 
9.95 -59.10 336.60 
10.80 -59.35 338.00 
11.50 -59.35 337.90 
12.40 -59.20 337.10 
13.05 -59.20 337.10 
13.50 -59.30 337.75 
16.75 -59.35 337.90 
17.90 -59.45 338.40 
18.50 -59.45 338.50 
19.30 -59.35 338.00 
20.00 -59.35 337.85 
20.70 -59.30 337.65 
21.25 -59.35 337.95 
23.95 -59.70 339.95 
24.50 -59.75 340.15 
25.30 -59.65 339.65 
26.30 -59.85 340.75 
27.05 -59.75 340.25 
32.00 -60.80 346.10 
32.65 -60.80 346.25 
33.10 -60.95 346.95 
33.85 -60.90 346.55 
34.60 -60.80 346.20 
35.25 -60.80 346.10 
35.65 -61.00 347.20 
36.50 -60.85 346.45 
37.20 -60.80 346.05 
37.85 -60.80 346.15 
38.55 -60.80 345.95 
39.00 -60.90 346.70 
39.80 -60.80 346.05 
40.45 -60.80 346.10 
41.05 -60.85 346.30 
41.75 -60.80 345.95 
42.40 -60.80 345.95 
43.00 -60.80 346.05 
43.70 -60.75 345.85 
44.40 -60.70 345.60 
44.95 -60.85 346.20 
45.65 -60.75 345.85 
46.20 -60.85 346.25 
47.00 -60.70 345.45 
47.50 -60.80 346.15 
48.10 -60.85 346.25 
49.10 -61.05 347.50 
49.90 -60.90 346.65 
50.55 -60.95 346.75 
51.90 -60.85 346.30 
52.45 -60.95 346.80 
52.95 -61.10 347.65 
53.80 -60.90 346.55 
54.30 -61.00 347.05 
55.05 -60.90 346.65 
55.65 -60.90 346.65 
56.35 -60.85 346.35 
56.90 -60.95 346.80 
57.60 -60.90 346.45 
58.20 -60.90 346.55 
60.55 -61.10 347.55 
61.25 -61.05 347.25 
65.15 -60.90 346.50 
65.75 -60.95 346.70 
66.40 -60.90 346.55 
67.10 -60.85 346.00 
67.60 -61.00 346.95 
68.25 -60.95 346.75 
68.85 -61.00 347.10 
69.60 -60.85 346.25 
70.20 -60.85 346.20 
70.75 -60.95 346.80 
71.40 -60.95 346.60 
72.00 -60.95 346.75 
72.60 -61.00 346.80 
73.20 -61.05 347.20 
73.80 -61.05 347.25 
74.50 -60.95 346.70 
75.20 -60.85 346.15 
75.85 -60.85 346.00 
76.45 -60.85 346.10 
76.95 -61.05 347.20 
77.50 -61.15 347.70 
79.40 -61.10 347.60 
80.10 -61.00 346.80 
80.75 -60.90 346.40 
81.80 -61.20 348.05 
82.45 -61.20 347.95 
83.15 -61.10 347.30 
83.80 -61.05 347.20 
84.40 -61.05 347.20 
85.05 -61.05 347.00 
86.50 -60.60 344.60 
87.15 -60.55 344.25 
87.75 -60.65 344.75 
89.15 -60.30 342.80 
89.90 -60.00 341.15 
90.55 -59.85 340.30 
91.15 -59.90 340.50 
92.30 -60.05 341.40 
93.00 -59.85 340.30 
93.65 -59.80 339.80 
94.25 -59.85 340.10 
94.85 -59.85 340.10 
95.50 -59.75 339.65 
96.10 -59.75 339.50 
96.70 -59.75 339.60 
97.85 -59.85 340.30 
98.55 -59.50 338.30 
100.90 -59.90 340.35 
101.55 -59.75 339.50 
102.15 -59.70 339.15 
102.75 -59.75 339.70 
103.35 -59.60 338.75 
103.95 -59.70 339.15 
104.55 -59.65 339.00 
105.25 -59.40 337.60 
105.80 -59.45 337.90 
106.45 -59.35 337.40 
107.00 -59.40 337.55 
107.60 -59.50 338.15 
108.20 -59.45 337.80 
108.80 -59.50 338.20 
109.40 -59.50 338.25 
110.00 -59.60 338.70 
110.60 -59.55 338.50 
111.20 -59.60 338.55 
111.80 -59.45 337.75 
112.40 -59.50 338.00 
113.60 -59.55 338.35 
114.20 -59.60 338.60 
114.80 -59.65 338.85 
115.40 -59.30 336.85 
116.00 -59.40 337.40 
117.20 -59.55 338.35 
119.00 -59.70 339.15 
119.60 -59.60 338.70 
120.80 -59.55 338.50 
121.40 -59.55 338.40 
122.00 -59.40 337.50 
122.55 -59.45 337.90 
123.20 -59.55 338.30 
123.80 -59.55 338.45 
124.35 -59.45 337.80 
124.95 -59.55 338.30 
125.55 -59.55 338.45 
126.20 -59.55 338.35 
126.75 -59.50 338.05 
127.35 -59.55 338.30 
128.00 -59.60 338.50 
128.55 -59.50 338.05 
129.20 -59.55 338.35 
129.75 -59.40 337.40 
-80.50 -59.65 341.60 
-79.10 -59.45 340.60 
-77.65 -59.25 339.40 
-76.70 -59.20 339.15 
-76.25 -59.30 339.80 
-75.30 -59.30 339.65 
-74.75 -59.35 340.05 
-74.40 -59.50 340.90 
-73.35 -59.40 340.40 
-72.25 -59.30 339.90 
-71.50 -59.30 339.95 
-70.40 -59.20 339.35 
-69.55 -59.20 339.20 
-68.90 -59.25 339.50 
-68.00 -59.20 339.25 
-67.35 -59.25 339.50 
-66.35 -59.15 339.15 
-65.90 -59.25 339.75 
-64.90 -59.20 339.25 
-64.10 -59.20 339.25 
-63.25 -59.15 339.10 
-62.65 -59.20 339.40 
-62.10 -59.30 339.85 
-61.20 -59.25 339.55 
-60.30 -59.20 339.25 
-59.55 -59.20 339.35 
-58.90 -59.25 339.55 
-58.20 -59.25 339.70 
-57.35 -59.20 339.50 
-56.65 -59.25 339.60 
-55.80 -59.20 339.45 
-55.00 -59.20 339.40 
-54.25 -59.20 339.40 
-53.30 -59.15 339.00 
-52.60 -59.15 339.10 
-51.95 -59.15 339.30 
-51.40 -59.25 339.65 
-50.35 -59.15 339.05 
-49.65 -59.15 339.20 
-49.05 -59.20 339.50 
-48.35 -59.20 339.55 
-47.50 -59.20 339.40 
-46.65 -59.15 339.15 
-46.20 -59.25 339.75 
-45.10 -59.10 338.95 
-44.30 -59.10 338.85 
-43.60 -59.10 338.95 
-42.85 -59.10 338.90 
-42.30 -59.15 339.25 
-41.35 -59.10 338.85 
-40.65 -59.10 338.85 
-40.05 -59.15 339.10 
-39.10 -59.05 338.70 
-38.50 -59.10 338.95 
-37.10 -59.10 339.05 
-36.05 -59.00 338.35 
-35.40 -59.00 338.50 
-34.55 -58.95 338.25 
-33.85 -58.95 338.25 
-33.15 -59.00 338.35 
-32.40 -58.95 338.25 
-31.65 -58.95 338.10 
-31.15 -59.05 338.70 
-30.40 -59.00 338.50 
-29.55 -58.95 338.25 
-28.70 -58.90 337.95 
-28.05 -58.90 338.05 
-27.40 -58.95 338.15 
-26.65 -58.95 338.05 
-25.90 -58.90 338.05 
-25.15 -58.90 337.90 
-24.55 -58.95 338.15 
-23.80 -58.90 338.05 
-23.00 -58.85 337.75 
-22.40 -58.90 338.00 
-21.50 -58.85 337.60 
-20.80 -58.80 337.50 
-20.20 -58.90 337.85 
-19.55 -58.90 337.90 
-19.05 -59.00 338.45 
-18.30 -58.95 338.20 
-17.45 -58.85 337.80 
-16.95 -58.95 338.35 
-16.05 -58.90 337.90 
-15.10 -58.75 337.20 
-14.25 -59.00 338.55 
-13.45 -58.95 338.20 
-12.50 -58.80 337.50 
-11.50 -59.00 338.55 
-9.85 -58.90 337.85 
-9.25 -58.90 338.00 
-8.30 -58.80 337.35 
-7.70 -58.80 337.50 
-6.95 -58.80 337.35 
-6.25 -58.80 337.35 
-5.65 -58.80 337.55 
-5.10 -58.85 337.75 
-4.25 -58.80 337.35 
-3.80 -58.90 338.00 
-2.95 -58.80 337.45 
-2.20 -58.75 337.25 
-1.55 -58.80 337.30 
-0.95 -58.80 337.50 
-0.15 -58.75 337.30 
0.60 -58.70 336.90 
3.25 -58.70 336.85 
3.60 -58.85 337.75 
4.50 -58.75 337.05 
5.20 -58.70 337.00 
6.10 -58.95 338.25 
7.45 -58.95 338.20 
8.35 -58.80 337.55 
9.00 -58.80 337.45 
9.90 -58.70 336.80 
10.80 -58.90 338.00 
12.50 -58.70 336.75 
13.05 -58.75 337.15 
13.45 -58.90 337.90 
14.35 -58.75 337.20 
15.15 -58.65 336.65 
16.20 -58.85 337.60 
18.70 -58.85 337.80 
19.35 -58.90 337.85 
19.95 -58.90 337.90 
20.65 -58.85 337.75 
21.10 -59.00 338.45 
24.60 -59.25 339.90 
25.35 -59.20 339.55 
25.95 -59.20 339.70 
26.35 -59.35 340.55 
27.00 -59.35 340.60 
29.80 -59.65 342.20 
32.60 -60.35 346.35 
33.15 -60.45 346.80 
33.80 -60.45 346.75 
34.65 -60.30 346.00 
35.25 -60.35 346.20 
35.65 -60.50 347.20 
36.40 -60.45 346.90 
37.25 -60.30 346.00 
37.80 -60.40 346.50 
39.00 -60.45 346.75 
39.70 -60.40 346.50 
40.40 -60.35 346.20 
41.05 -60.35 346.20 
41.70 -60.35 346.10 
42.30 -60.40 346.40 
43.05 -60.30 345.80 
43.65 -60.30 346.00 
44.40 -60.25 345.70 
44.85 -60.40 346.50 
45.60 -60.35 346.00 
46.15 -60.40 346.45 
46.95 -60.25 345.60 
47.45 -60.35 346.25 
48.20 -60.30 345.85 
49.75 -60.60 347.55 
50.40 -60.60 347.60 
51.10 -60.55 347.25 
51.85 -60.45 346.65 
53.05 -60.50 347.10 
53.80 -60.45 346.55 
54.35 -60.50 346.95 
55.05 -60.45 346.55 
55.65 -60.45 346.65 
56.35 -60.40 346.30 
56.95 -60.40 346.45 
57.70 -60.35 345.90 
58.25 -60.40 346.35 
58.95 -60.35 346.05 
59.60 -60.30 345.75 
60.65 -60.55 347.05 
61.30 -60.50 347.00 
64.30 -60.70 347.85 
65.10 -60.50 346.75 
65.75 -60.45 346.60 
66.40 -60.45 346.60 
67.10 -60.35 346.10 
67.55 -60.55 347.15 
68.25 -60.50 346.75 
68.85 -60.50 346.90 
69.60 -60.35 346.10 
70.25 -60.40 346.20 
70.80 -60.45 346.65 
71.40 -60.45 346.55 
72.00 -60.50 346.75 
72.65 -60.45 346.60 
73.20 -60.55 347.00 
73.85 -60.55 346.95 
74.50 -60.50 346.75 
75.20 -60.45 346.35 
75.85 -60.40 346.05 
76.45 -60.40 346.25 
76.95 -60.55 347.15 
77.45 -60.75 348.05 
78.25 -60.50 346.85 
78.75 -60.65 347.60 
79.45 -60.60 347.30 
80.10 -60.50 346.80 
81.30 -60.55 347.10 
81.90 -60.60 347.35 
82.55 -60.60 347.25 
83.75 -60.65 347.60 
84.40 -60.60 347.40 
85.10 -60.50 346.75 
85.75 -60.45 346.45 
87.75 -60.20 345.00 
89.20 -59.75 342.30 
89.90 -59.55 341.20 
90.55 -59.50 340.75 
91.20 -59.35 340.10 
91.80 -59.40 340.30 
92.35 -59.55 341.10 
93.00 -59.35 340.05 
93.65 -59.35 339.85 
94.20 -59.45 340.45 
94.85 -59.35 339.95 
95.50 -59.20 339.25 
96.70 -59.30 339.80 
97.25 -59.35 340.10 
97.90 -59.30 339.60 
98.55 -59.10 338.60 
99.75 -59.20 338.95 
100.90 -59.40 340.25 
101.55 -59.25 339.40 
102.15 -59.30 339.65 
103.95 -59.15 338.90 
104.60 -59.15 338.80 
105.20 -59.00 337.95 
105.80 -58.95 337.75 
107.00 -59.15 338.65 
107.55 -59.25 339.25 
108.20 -59.05 338.10 
108.80 -59.10 338.50 
109.40 -59.20 338.95 
110.00 -59.20 338.95 
110.60 -59.15 338.75 
111.20 -59.15 338.60 
111.80 -59.05 338.05 
112.40 -59.15 338.60 
113.00 -59.10 338.55 
113.60 -59.00 337.85 
114.20 -59.10 338.35 
114.80 -59.05 338.20 
115.40 -59.00 337.85 
116.00 -59.00 338.00 
117.20 -59.10 338.35 
117.75 -59.20 339.05 
119.00 -59.30 339.65 
119.60 -59.15 338.60 
120.20 -59.10 338.50 
120.80 -59.20 338.85 
121.40 -59.10 338.55 
123.80 -59.20 339.00 
124.35 -58.95 337.50 
124.95 -59.05 338.05 
125.55 -59.10 338.50 
127.95 -59.05 338.15 
128.55 -59.05 338.05 
129.15 -59.00 338.00 
-80.55 -59.20 341.70 
-79.10 -59.00 340.60 
-77.65 -58.80 339.45 
-76.70 -58.75 339.25 
-76.20 -58.80 339.70 
-75.30 -58.80 339.65 
-74.55 -58.85 339.80 
-74.35 -59.00 340.80 
-73.10 -58.85 339.95 
-72.05 -58.80 339.50 
-71.30 -58.80 339.60 
-70.35 -58.75 339.25 
-69.70 -58.80 339.50 
-68.75 -58.75 339.25 
-68.10 -58.75 339.50 
-67.25 -58.75 339.35 
-66.35 -58.70 339.15 
-65.90 -58.80 339.70 
-64.90 -58.75 339.30 
-64.25 -58.75 339.50 
-63.35 -58.75 339.30 
-62.80 -58.80 339.75 
-61.85 -58.75 339.35 
-61.20 -58.75 339.55 
-60.35 -58.75 339.35 
-59.55 -58.75 339.40 
-58.95 -58.80 339.60 
-58.30 -58.80 339.85 
-57.30 -58.75 339.45 
-56.65 -58.75 339.60 
-55.70 -58.70 339.25 
-55.05 -58.75 339.40 
-54.25 -58.75 339.40 
-53.40 -58.70 339.15 
-52.55 -58.65 339.00 
-51.95 -58.70 339.30 
-51.20 -58.70 339.35 
-50.25 -58.65 338.90 
-49.65 -58.70 339.20 
-48.85 -58.70 339.10 
-48.20 -58.70 339.20 
-47.40 -58.70 339.15 
-46.40 -58.60 338.55 
-46.10 -58.75 339.50 
-45.10 -58.65 339.00 
-44.35 -58.65 338.95 
-43.70 -58.65 339.15 
-42.85 -58.60 338.85 
-42.25 -58.65 339.15 
-41.35 -58.60 338.80 
-40.70 -58.65 338.95 
-40.15 -58.70 339.40 
-39.15 -58.60 338.75 
-38.40 -58.60 338.75 
-37.95 -58.70 339.40 
-36.80 -58.55 338.45 
-36.15 -58.55 338.60 
-35.40 -58.55 338.50 
-34.50 -58.50 338.10 
-33.90 -58.55 338.40 
-33.30 -58.55 338.60 
-32.40 -58.50 338.25 
-31.60 -58.45 338.00 
-31.20 -58.60 338.70 
-30.40 -58.55 338.50 
-29.60 -58.50 338.35 
-28.65 -58.40 337.80 
-27.90 -58.40 337.70 
-27.40 -58.50 338.15 
-26.75 -58.50 338.35 
-25.90 -58.45 337.95 
-25.00 -58.40 337.60 
-24.35 -58.40 337.70 
-23.65 -58.40 337.65 
-23.00 -58.40 337.80 
-22.40 -58.45 338.05 
-21.45 -58.35 337.45 
-20.80 -58.40 337.60 
-20.15 -58.40 337.65 
-19.35 -58.35 337.40 
-18.80 -58.40 337.80 
-18.15 -58.45 337.95 
-17.60 -58.50 338.25 
-16.80 -58.45 338.00 
-16.15 -58.45 338.05 
-15.45 -58.45 338.05 
-14.20 -58.50 338.40 
-13.45 -58.50 338.15 
-12.45 -58.35 337.45 
-11.40 -58.50 338.30 
-10.30 -58.30 337.20 
-9.80 -58.40 337.65 
-9.25 -58.45 338.05 
-8.40 -58.35 337.60 
-7.75 -58.40 337.65 
-7.05 -58.40 337.60 
-6.20 -58.30 337.20 
-5.65 -58.35 337.45 
-4.95 -58.35 337.45 
-4.30 -58.35 337.50 
-3.65 -58.35 337.55 
-2.95 -58.35 337.50 
-2.30 -58.35 337.55 
-1.55 -58.35 337.35 
-0.75 -58.30 337.05 
-0.25 -58.35 337.50 
0.55 -58.25 337.00 
5.95 -58.55 338.75 
7.30 -58.55 338.60 
8.10 -58.45 338.20 
8.90 -58.40 337.80 
9.90 -58.25 336.75 
10.85 -58.40 337.90 
11.45 -58.45 337.95 
12.50 -58.20 336.70 
13.00 -58.35 337.35 
13.55 -58.40 337.60 
14.40 -58.25 337.00 
15.15 -58.20 336.65 
16.20 -58.40 337.60 
17.15 -58.20 336.55 
17.95 -58.50 338.25 
18.65 -58.45 337.95 
19.35 -58.40 337.80 
19.95 -58.45 337.90 
20.70 -58.40 337.60 
21.15 -58.50 338.30 
23.95 -58.80 339.90 
24.65 -58.75 339.70 
25.25 -58.80 339.95 
25.85 -58.80 340.00 
26.35 -58.90 340.45 
26.90 -58.95 340.90 
29.75 -59.20 342.40 
30.20 -59.35 343.20 
32.65 -59.90 346.25 
33.15 -60.00 346.80 
33.80 -59.95 346.75 
34.60 -59.90 346.25 
35.20 -59.90 346.45 
35.70 -60.05 347.10 
36.40 -60.00 346.85 
37.15 -59.90 346.40 
37.80 -59.90 346.40 
38.45 -59.90 346.30 
39.00 -59.95 346.75 
39.50 -60.05 347.30 
40.45 -59.85 345.95 
40.95 -59.95 346.65 
41.85 -59.75 345.50 
42.30 -59.90 346.40 
43.15 -59.75 345.50 
43.65 -59.85 346.05 
44.40 -59.80 345.75 
44.85 -59.95 346.60 
45.60 -59.85 346.05 
46.10 -59.95 346.60 
46.95 -59.80 345.70 
48.10 -59.90 346.15 
50.40 -60.10 347.50 
51.00 -60.15 347.70 
51.80 -60.00 346.80 
52.65 -59.85 345.90 
53.20 -59.95 346.45 
53.75 -60.00 346.75 
54.40 -60.00 346.80 
55.00 -60.00 346.80 
55.70 -59.95 346.55 
56.35 -59.90 346.20 
57.00 -59.90 346.20 
57.60 -59.95 346.45 
58.20 -59.95 346.55 
59.00 -59.80 345.55 
59.55 -59.90 346.05 
60.85 -59.90 346.00 
64.20 -60.30 348.50 
65.15 -59.95 346.50 
65.75 -60.00 346.55 
66.40 -59.95 346.50 
66.95 -60.05 346.95 
67.55 -60.15 347.40 
68.25 -60.00 346.75 
68.85 -60.05 346.90 
69.60 -59.90 346.10 
70.20 -59.95 346.35 
70.85 -59.95 346.30 
71.55 -59.85 345.65 
72.55 -60.10 347.35 
73.20 -60.10 347.05 
73.80 -60.15 347.35 
74.60 -59.90 346.10 
75.15 -60.00 346.70 
75.85 -59.90 346.05 
76.40 -60.00 346.50 
77.05 -60.00 346.65 
77.50 -60.20 347.80 
78.15 -60.20 347.60 
78.80 -60.20 347.55 
79.45 -60.10 347.20 
80.05 -60.10 347.05 
80.70 -60.05 346.75 
81.30 -60.10 347.10 
82.05 -59.90 346.00 
82.60 -60.05 346.70 
83.70 -60.20 347.75 
84.40 -60.15 347.30 
85.05 -60.10 347.05 
85.75 -60.00 346.45 
86.40 -59.85 345.70 
87.05 -59.90 345.75 
87.80 -59.65 344.55 
89.20 -59.25 342.00 
89.90 -59.10 341.30 
90.50 -59.05 341.00 
91.15 -58.95 340.45 
91.85 -58.85 339.85 
92.40 -58.90 340.15 
93.05 -58.80 339.55 
93.70 -58.80 339.50 
94.85 -58.90 339.90 
95.50 -58.80 339.45 
97.95 -58.65 338.50 
98.50 -58.75 339.20 
99.15 -58.65 338.65 
99.75 -58.65 338.65 
100.90 -58.95 340.20 
101.55 -58.75 339.05 
102.10 -58.90 340.05 
102.80 -58.65 338.65 
103.40 -58.65 338.65 
104.00 -58.70 338.75 
104.60 -58.65 338.40 
106.95 -58.70 338.95 
108.20 -58.70 338.70 
108.80 -58.70 338.80 
109.35 -58.80 339.25 
110.00 -58.75 339.00 
110.60 -58.70 338.85 
111.15 -58.75 339.20 
112.40 -58.80 339.45 
112.95 -58.70 338.75 
113.60 -58.55 337.90 
114.20 -58.60 338.30 
114.80 -58.60 338.20 
115.40 -58.55 338.00 
116.00 -58.50 337.55 
117.20 -58.65 338.50 
117.80 -58.70 338.65 
119.00 -58.85 339.60 
119.60 -58.60 338.30 
120.20 -58.70 338.70 
120.80 -58.70 338.65 
121.40 -58.60 338.10 
122.00 -58.50 337.75 
123.20 -58.65 338.50 
124.40 -58.60 338.05 
124.95 -58.60 338.30 
125.55 -58.55 337.90 
126.15 -58.50 337.50 
126.75 -58.60 338.10 
127.35 -58.60 338.30 
127.95 -58.55 337.90 
128.55 -58.50 337.70 
129.75 -58.55 337.80 
130.35 -58.45 337.35 
130.95 -58.50 337.75 
-80.50 -58.70 341.65 
-79.00 -58.50 340.45 
-77.70 -58.35 339.60 
-76.80 -58.30 339.35 
-75.95 -58.30 339.25 
-75.45 -58.40 339.90 
-74.55 -58.35 339.75 
-74.00 -58.45 340.15 
-72.95 -58.35 339.65 
-71.85 -58.25 339.20 
-71.25 -58.30 339.50 
-70.35 -58.30 339.30 
-69.60 -58.30 339.35 
-68.80 -58.30 339.35 
-68.15 -58.30 339.55 
-67.30 -58.30 339.40 
-66.50 -58.30 339.40 
-65.80 -58.30 339.55 
-65.00 -58.30 339.50 
-64.45 -58.40 339.90 
-63.35 -58.25 339.25 
-62.80 -58.35 339.70 
-61.90 -58.30 339.40 
-61.40 -58.40 339.90 
-60.25 -58.25 339.20 
-59.85 -58.40 339.95 
-59.00 -58.35 339.80 
-58.30 -58.35 339.85 
-57.25 -58.25 339.30 
-56.65 -58.30 339.65 
-55.80 -58.30 339.45 
-55.05 -58.30 339.45 
-54.30 -58.30 339.45 
-53.40 -58.25 339.15 
-52.50 -58.20 338.90 
-51.90 -58.25 339.25 
-51.20 -58.25 339.30 
-50.25 -58.20 338.90 
-49.80 -58.30 339.50 
-48.80 -58.20 339.00 
-48.15 -58.25 339.20 
-47.25 -58.15 338.80 
-46.25 -58.05 338.30 
-46.10 -58.30 339.50 
-45.20 -58.20 339.20 
-44.40 -58.20 339.10 
-43.65 -58.20 339.00 
-42.95 -58.20 339.15 
-42.20 -58.20 339.10 
-41.50 -58.20 339.10 
-40.70 -58.20 339.00 
-40.05 -58.20 339.15 
-39.15 -58.15 338.80 
-38.55 -58.20 339.05 
-37.95 -58.25 339.30 
-36.85 -58.10 338.55 
-36.00 -58.05 338.20 
-35.30 -58.05 338.35 
-34.40 -58.00 337.90 
-33.95 -58.10 338.45 
-33.40 -58.15 338.85 
-32.45 -58.05 338.30 
-31.70 -58.05 338.30 
-31.35 -58.20 339.10 
-30.55 -58.15 338.80 
-29.80 -58.15 338.85 
-28.75 -58.00 338.00 
-27.85 -57.95 337.60 
-27.20 -57.95 337.80 
-26.70 -58.05 338.20 
-25.85 -58.00 337.95 
-25.10 -57.95 337.80 
-24.35 -57.95 337.70 
-23.80 -58.00 338.10 
-22.95 -57.95 337.65 
-22.30 -57.95 337.85 
-21.40 -57.90 337.35 
-20.90 -57.95 337.75 
-20.00 -57.85 337.30 
-19.40 -57.90 337.55 
-18.60 -57.85 337.30 
-17.85 -58.15 338.95 
-17.00 -58.10 338.55 
-15.80 -58.15 338.95 
-14.85 -58.05 338.35 
-14.10 -58.00 338.10 
-13.35 -58.00 337.95 
-12.55 -57.95 337.70 
-11.70 -57.85 337.25 
-11.35 -58.00 338.10 
-9.75 -57.90 337.55 
-9.20 -57.95 337.90 
-8.45 -57.95 337.80 
-7.70 -57.90 337.55 
-7.10 -57.95 337.75 
-6.20 -57.85 337.10 
-5.70 -57.95 337.65 
-4.90 -57.85 337.25 
-4.35 -57.90 337.65 
-3.75 -57.95 337.80 
-2.95 -57.90 337.50 
-2.35 -57.95 337.75 
-1.55 -57.90 337.40 
-0.85 -57.85 337.35 
-0.25 -57.90 337.50 
0.35 -57.90 337.50 
3.40 -58.40 340.30 
6.35 -58.25 339.50 
7.35 -58.05 338.45 
8.10 -58.05 338.35 
8.90 -57.95 337.80 
9.65 -57.90 337.45 
11.30 -58.10 338.55 
12.40 -57.85 337.15 
12.95 -57.90 337.45 
13.65 -57.90 337.40 
14.40 -57.85 337.05 
14.95 -57.90 337.45 
15.70 -57.85 337.10 
16.25 -57.90 337.45 
16.95 -57.85 337.15 
17.65 -57.85 337.10 
18.00 -58.00 338.10 
18.65 -58.00 338.05 
19.35 -57.95 337.85 
19.95 -58.00 338.00 
20.80 -57.90 337.40 
21.25 -58.00 338.10 
21.85 -58.00 338.15 
22.55 -58.00 338.05 
23.05 -58.10 338.50 
25.10 -58.40 340.35 
25.90 -58.30 339.85 
26.55 -58.30 339.90 
27.10 -58.40 340.25 
29.70 -58.75 342.55 
30.30 -58.80 342.75 
32.70 -59.35 345.95 
33.90 -59.45 346.45 
34.50 -59.45 346.50 
35.10 -59.50 346.85 
36.40 -59.50 346.75 
37.10 -59.45 346.55 
37.65 -59.55 347.05 
38.40 -59.45 346.55 
39.05 -59.45 346.55 
40.40 -59.40 346.20 
41.90 -59.25 345.25 
42.30 -59.45 346.40 
43.10 -59.30 345.65 
43.70 -59.35 345.95 
44.40 -59.35 345.70 
44.90 -59.45 346.25 
45.55 -59.45 346.25 
46.15 -59.50 346.55 
46.90 -59.40 346.05 
47.35 -59.50 346.70 
48.05 -59.50 346.50 
48.65 -59.50 346.70 
49.30 -59.50 346.70 
50.45 -59.60 347.25 
51.15 -59.55 346.85 
51.75 -59.60 347.15 
52.65 -59.40 345.95 
53.20 -59.45 346.45 
53.70 -59.60 347.10 
54.55 -59.40 345.95 
55.00 -59.55 346.80 
55.70 -59.45 346.45 
56.40 -59.40 345.90 
57.55 -59.55 346.75 
58.30 -59.45 346.15 
59.00 -59.35 345.80 
59.55 -59.45 346.30 
60.30 -59.30 345.35 
61.25 -59.60 347.20 
61.90 -59.65 347.40 
64.30 -59.75 348.05 
65.00 -59.65 347.30 
65.85 -59.40 346.00 
66.40 -59.50 346.45 
66.95 -59.60 347.00 
67.55 -59.65 347.35 
68.20 -59.60 347.15 
68.90 -59.55 346.80 
69.50 -59.55 346.80 
70.25 -59.45 346.25 
70.85 -59.45 346.15 
71.50 -59.40 345.90 
72.10 -59.45 346.05 
72.65 -59.55 346.60 
73.20 -59.60 347.10 
73.80 -59.65 347.25 
74.55 -59.45 346.20 
75.15 -59.55 346.75 
75.80 -59.50 346.30 
76.40 -59.55 346.75 
77.00 -59.55 346.85 
77.55 -59.65 347.30 
78.20 -59.65 347.20 
78.80 -59.65 347.35 
79.50 -59.55 346.60 
80.05 -59.65 347.10 
80.65 -59.65 347.20 
82.10 -59.40 345.65 
82.60 -59.55 346.60 
83.70 -59.80 347.95 
84.40 -59.70 347.40 
85.10 -59.50 346.40 
85.75 -59.50 346.30 
86.35 -59.55 346.55 
86.95 -59.60 346.85 
87.75 -59.25 345.00 
89.20 -58.80 342.25 
89.90 -58.60 341.10 
91.15 -58.50 340.55 
91.80 -58.50 340.45 
92.45 -58.40 339.80 
93.05 -58.35 339.45 
93.65 -58.35 339.70 
94.25 -58.45 340.05 
94.85 -58.45 340.20 
95.45 -58.40 339.80 
96.70 -58.35 339.40 
98.00 -58.20 338.50 
98.55 -58.30 339.15 
99.15 -58.20 338.65 
99.80 -58.20 338.50 
100.35 -58.35 339.35 
100.90 -58.40 339.80 
101.55 -58.40 339.70 
102.15 -58.40 339.75 
102.75 -58.35 339.35 
103.40 -58.20 338.50 
104.00 -58.20 338.55 
104.65 -58.10 337.95 
105.25 -58.00 337.55 
110.00 -58.30 339.05 
110.60 -58.25 338.80 
111.20 -58.25 338.90 
111.80 -58.20 338.70 
112.40 -58.35 339.35 
112.95 -58.30 339.05 
113.60 -58.15 338.20 
114.20 -58.10 338.10 
114.80 -58.10 337.90 
115.40 -58.15 338.25 
119.00 -58.45 339.95 
120.20 -58.25 338.70 
120.80 -58.10 337.90 
121.40 -58.05 337.75 
122.60 -58.10 338.10 
123.20 -58.20 338.55 
123.80 -58.25 338.70 
124.40 -58.20 338.65 
124.95 -58.20 338.50 
125.55 -58.00 337.50 
126.20 -58.10 337.95 
126.75 -58.10 337.95 
127.35 -58.15 338.25 
127.95 -58.10 338.05 
128.55 -58.05 337.75 
129.15 -58.10 337.90 
129.75 -58.05 337.70 
130.35 -57.95 337.10 
130.95 -57.95 337.00 
-81.60 -58.35 342.15 
-80.40 -58.20 341.40 
-79.15 -58.10 340.70 
-77.75 -57.90 339.65 
-76.70 -57.85 339.25 
-75.85 -57.80 339.15 
-75.40 -57.90 339.80 
-74.70 -57.95 340.00 
-73.85 -57.95 339.90 
-73.00 -57.90 339.80 
-71.80 -57.80 339.15 
-71.35 -57.90 339.65 
-70.55 -57.90 339.65 
-69.50 -57.80 339.20 
-68.85 -57.85 339.40 
-68.10 -57.85 339.45 
-67.35 -57.85 339.50 
-66.50 -57.85 339.40 
-65.85 -57.85 339.60 
-65.15 -57.90 339.70 
-64.50 -57.95 340.00 
-63.40 -57.85 339.40 
-62.70 -57.85 339.50 
-62.25 -57.95 340.10 
-61.40 -57.95 340.00 
-60.25 -57.80 339.20 
-59.95 -57.95 340.15 
-59.00 -57.90 339.75 
-58.25 -57.90 339.85 
-57.60 -57.90 340.00 
-56.75 -57.90 339.85 
-55.75 -57.80 339.35 
-55.05 -57.80 339.45 
-54.25 -57.80 339.40 
-53.45 -57.80 339.25 
-52.45 -57.70 338.85 
-51.95 -57.80 339.30 
-51.25 -57.80 339.40 
-50.45 -57.80 339.25 
-49.70 -57.80 339.30 
-48.85 -57.75 339.05 
-48.15 -57.75 339.15 
-47.25 -57.70 338.80 
-46.25 -57.60 338.35 
-46.10 -57.85 339.55 
-45.40 -57.85 339.55 
-44.50 -57.80 339.25 
-43.75 -57.75 339.20 
-43.05 -57.80 339.30 
-42.20 -57.75 339.05 
-41.50 -57.75 339.15 
-40.80 -57.75 339.25 
-39.85 -57.70 338.80 
-39.35 -57.75 339.20 
-38.60 -57.75 339.15 
-37.80 -57.70 339.00 
-37.00 -57.70 338.85 
-35.80 -57.50 337.85 
-35.30 -57.60 338.35 
-34.70 -57.65 338.55 
-33.85 -57.60 338.25 
-33.45 -57.70 339.00 
-32.60 -57.65 338.65 
-31.95 -57.70 338.90 
-31.50 -57.80 339.45 
-30.50 -57.65 338.80 
-29.70 -57.65 338.65 
-28.75 -57.55 338.10 
-27.90 -57.50 337.70 
-27.20 -57.50 337.75 
-26.55 -57.50 337.90 
-25.75 -57.50 337.70 
-25.20 -57.55 338.05 
-24.35 -57.45 337.65 
-23.85 -57.55 338.15 
-22.95 -57.50 337.65 
-22.25 -57.50 337.65 
-21.35 -57.40 337.25 
-20.95 -57.50 337.95 
-20.10 -57.45 337.50 
-19.40 -57.45 337.60 
-18.50 -57.40 337.10 
-15.80 -57.70 339.00 
-14.70 -57.50 337.90 
-14.05 -57.50 337.95 
-13.20 -57.45 337.65 
-12.70 -57.55 338.10 
-11.90 -57.50 337.75 
-11.25 -57.50 337.85 
-10.35 -57.40 337.35 
-9.80 -57.45 337.65 
-9.10 -57.45 337.60 
-8.50 -57.50 337.85 
-7.55 -57.40 337.15 
-7.15 -57.50 337.80 
-6.30 -57.40 337.40 
-5.55 -57.40 337.25 
-4.80 -57.35 337.10 
-4.10 -57.35 336.90 
-3.05 -57.50 337.75 
-2.35 -57.50 337.75 
-1.70 -57.50 337.75 
-0.95 -57.45 337.50 
-0.20 -57.40 337.40 
0.35 -57.45 337.50 
0.90 -57.50 337.85 
1.25 -57.65 338.85 
3.45 -57.90 340.25 
4.05 -57.95 340.40 
5.65 -57.80 339.65 
6.35 -57.80 339.55 
7.55 -57.50 337.90 
8.20 -57.55 338.00 
8.90 -57.50 337.80 
9.55 -57.50 337.80 
11.25 -57.65 338.65 
12.25 -57.45 337.60 
13.00 -57.40 337.40 
13.50 -57.50 337.85 
14.30 -57.40 337.40 
14.90 -57.45 337.45 
15.70 -57.40 337.15 
16.90 -57.40 337.35 
17.55 -57.40 337.35 
18.05 -57.50 337.90 
18.60 -57.55 338.20 
19.30 -57.55 338.05 
19.85 -57.60 338.30 
20.75 -57.45 337.50 
21.15 -57.60 338.40 
21.90 -57.55 338.10 
22.45 -57.60 338.45 
23.25 -57.50 337.90 
23.80 -57.60 338.30 
25.10 -57.95 340.40 
25.90 -57.85 339.95 
26.40 -57.90 340.30 
27.10 -57.90 340.15 
29.70 -58.35 342.65 
30.35 -58.30 342.60 
32.65 -58.95 346.15 
33.15 -59.05 346.90 
33.95 -58.95 346.30 
34.55 -59.00 346.50 
35.00 -59.10 347.25 
35.65 -59.10 347.30 
36.35 -59.10 347.00 
37.15 -59.00 346.50 
37.65 -59.10 347.15 
38.35 -59.05 346.75 
39.10 -58.95 346.30 
39.65 -59.05 346.80 
40.45 -58.95 346.15 
41.90 -58.80 345.35 
42.40 -58.90 345.95 
43.10 -58.85 345.75 
43.70 -58.90 345.80 
44.40 -58.85 345.65 
45.70 -58.85 345.65 
46.85 -58.95 346.25 
47.40 -59.00 346.60 
47.95 -59.10 346.95 
48.60 -59.10 347.00 
49.25 -59.05 346.90 
49.90 -59.05 346.90 
50.60 -59.05 346.65 
51.25 -59.00 346.60 
51.75 -59.10 347.10 
52.55 -59.00 346.35 
53.20 -59.00 346.40 
53.75 -59.05 346.85 
54.50 -58.95 346.10 
55.05 -59.05 346.70 
55.70 -59.00 346.45 
56.40 -58.95 346.00 
57.45 -59.15 347.20 
58.30 -58.95 346.00 
58.95 -58.95 346.00 
59.55 -59.00 346.30 
60.90 -58.90 345.75 
61.95 -59.10 346.90 
64.95 -59.20 347.65 
68.20 -59.15 347.10 
68.85 -59.10 346.90 
69.50 -59.10 346.80 
70.80 -59.05 346.45 
71.45 -59.00 346.30 
72.10 -58.95 346.10 
72.70 -59.05 346.45 
73.20 -59.15 347.15 
73.80 -59.20 347.45 
74.55 -59.00 346.30 
75.15 -59.05 346.50 
75.85 -58.95 346.10 
76.40 -59.10 346.85 
76.90 -59.30 347.90 
77.65 -59.05 346.55 
78.20 -59.15 347.20 
79.45 -59.15 347.20 
80.10 -59.15 346.95 
80.70 -59.15 346.95 
82.10 -58.90 345.65 
82.60 -59.10 346.70 
83.20 -59.10 346.85 
83.75 -59.25 347.55 
84.45 -59.15 347.00 
85.10 -59.10 346.60 
85.75 -59.00 346.15 
87.00 -59.00 346.20 
87.70 -58.90 345.50 
89.10 -58.55 343.45 
91.10 -58.15 341.15 
91.75 -58.10 340.70 
92.45 -57.90 339.60 
93.10 -57.85 339.45 
93.65 -57.95 340.05 
94.25 -57.95 339.75 
94.85 -58.05 340.45 
95.50 -57.85 339.25 
96.15 -57.85 339.15 
97.25 -58.00 340.20 
97.95 -57.75 338.65 
98.55 -57.80 339.05 
99.15 -57.75 338.70 
101.55 -57.90 339.40 
102.15 -57.85 339.35 
102.75 -57.90 339.45 
103.40 -57.70 338.25 
104.00 -57.75 338.55 
104.65 -57.65 337.95 
105.25 -57.55 337.35 
105.85 -57.55 337.45 
106.45 -57.60 337.60 
107.00 -57.60 337.85 
108.80 -57.80 338.95 
109.40 -57.70 338.45 
110.00 -57.85 339.20 
113.00 -57.75 338.65 
113.60 -57.70 338.20 
114.20 -57.75 338.70 
114.80 -57.50 337.25 
115.40 -57.60 337.60 
117.20 -57.65 338.10 
119.00 -57.95 339.70 
120.20 -57.75 338.55 
120.80 -57.65 338.05 
121.40 -57.60 337.75 
122.60 -57.65 338.10 
123.80 -57.75 338.70 
124.40 -57.65 338.15 
124.95 -57.70 338.30 
125.55 -57.60 337.65 
126.20 -57.70 338.30 
126.75 -57.60 337.85 
127.35 -57.60 337.60 
127.95 -57.65 337.95 
128.55 -57.65 338.00 
129.20 -57.65 338.10 
129.75 -57.55 337.55 
130.35 -57.60 337.85 
130.95 -57.50 337.10 
131.55 -57.60 337.60 
-81.15 -57.75 341.35 
-80.40 -57.75 341.45 
-79.35 -57.65 341.05 
-77.80 -57.45 339.70 
-76.85 -57.40 339.45 
-75.95 -57.40 339.30 
-75.30 -57.45 339.65 
-74.70 -57.50 340.00 
-73.80 -57.45 339.80 
-72.90 -57.45 339.65 
-72.00 -57.40 339.45 
-71.40 -57.45 339.75 
-70.65 -57.45 339.85 
-69.60 -57.35 339.35 
-68.85 -57.40 339.40 
-68.30 -57.45 339.85 
-67.20 -57.35 339.30 
-66.65 -57.40 339.65 
-65.75 -57.40 339.45 
-65.00 -57.40 339.45 
-64.40 -57.45 339.85 
-63.65 -57.45 339.85 
-62.70 -57.40 339.50 
-62.20 -57.45 340.00 
-61.25 -57.40 339.65 
-60.35 -57.35 339.40 
-59.80 -57.45 339.85 
-59.05 -57.45 339.80 
-58.30 -57.45 339.90 
-57.85 -57.55 340.50 
-56.85 -57.45 340.05 
-55.75 -57.35 339.40 
-55.05 -57.35 339.40 
-54.40 -57.40 339.70 
-53.35 -57.30 339.15 
-52.45 -57.25 338.85 
-51.90 -57.30 339.20 
-51.15 -57.30 339.25 
-50.45 -57.35 339.30 
-49.70 -57.30 339.25 
-48.95 -57.35 339.30 
-48.00 -57.25 338.80 
-47.15 -57.20 338.65 
-46.45 -57.20 338.65 
-46.10 -57.35 339.50 
-45.30 -57.35 339.45 
-44.65 -57.35 339.60 
-43.80 -57.35 339.40 
-43.05 -57.35 339.35 
-42.25 -57.30 339.25 
-41.40 -57.25 338.95 
-40.80 -57.30 339.20 
-39.90 -57.25 338.80 
-39.35 -57.30 339.20 
-38.50 -57.25 338.95 
-37.70 -57.25 338.85 
-37.10 -57.30 339.15 
-35.85 -57.10 337.90 
-35.25 -57.10 338.20 
-34.70 -57.20 338.60 
-33.90 -57.15 338.40 
-33.50 -57.25 339.10 
-32.60 -57.20 338.65 
-32.10 -57.30 339.20 
-31.60 -57.35 339.65 
-30.55 -57.25 338.90 
-29.60 -57.15 338.40 
-28.70 -57.05 337.95 
-27.90 -57.05 337.75 
-27.25 -57.05 337.90 
-26.55 -57.05 337.95 
-25.85 -57.05 337.85 
-25.15 -57.05 337.90 
-24.45 -57.05 337.95 
-23.80 -57.10 338.05 
-22.95 -57.00 337.70 
-22.20 -57.00 337.60 
-21.50 -57.00 337.60 
-20.90 -57.05 337.85 
-20.05 -57.00 337.50 
-19.45 -57.00 337.65 
-18.65 -56.95 337.40 
-17.60 -57.10 338.25 
-16.15 -57.10 338.10 
-15.55 -57.15 338.35 
-14.75 -57.05 338.00 
-14.05 -57.05 338.00 
-13.10 -56.95 337.35 
-12.80 -57.15 338.35 
-11.75 -56.95 337.45 
-11.10 -57.00 337.50 
-10.30 -56.95 337.25 
-9.85 -57.05 337.75 
-8.85 -56.90 337.00 
-8.45 -57.05 337.85 
-7.15 -57.05 337.85 
-6.15 -56.90 337.00 
-5.45 -56.90 336.90 
-4.90 -56.95 337.35 
-4.15 -56.90 337.05 
-3.50 -56.90 337.15 
-3.05 -57.00 337.75 
-2.45 -57.05 337.95 
-1.70 -57.05 337.85 
-0.95 -57.00 337.50 
0.15 -57.10 338.20 
0.70 -57.15 338.50 
1.25 -57.20 338.85 
3.50 -57.40 340.00 
5.65 -57.35 339.70 
7.80 -56.95 337.20 
8.35 -56.95 337.45 
8.80 -57.10 338.15 
9.50 -57.05 338.00 
11.25 -57.20 338.65 
12.25 -57.00 337.65 
12.90 -57.00 337.65 
13.40 -57.10 338.10 
13.95 -57.15 338.45 
14.95 -56.95 337.40 
15.50 -57.05 337.80 
16.20 -57.00 337.50 
18.05 -57.05 337.80 
18.75 -57.00 337.65 
19.30 -57.05 338.00 
19.75 -57.15 338.60 
20.75 -57.00 337.60 
21.10 -57.15 338.60 
21.90 -57.10 338.05 
22.40 -57.20 338.65 
23.25 -57.05 337.85 
23.80 -57.10 338.20 
25.35 -57.35 339.60 
26.05 -57.30 339.30 
29.65 -57.90 342.80 
30.35 -57.85 342.70 
32.10 -58.40 345.80 
32.55 -58.55 346.65 
33.20 -58.55 346.70 
34.00 -58.45 346.00 
34.50 -58.55 346.70 
35.00 -58.65 347.30 
35.90 -58.45 346.20 
36.30 -58.65 347.25 
37.10 -58.55 346.60 
37.65 -58.65 347.15 
38.25 -58.65 347.35 
39.05 -58.55 346.65 
39.65 -58.55 346.75 
40.35 -58.50 346.45 
40.95 -58.55 346.60 
41.70 -58.45 346.15 
42.95 -58.50 346.40 
43.70 -58.45 345.90 
44.45 -58.35 345.50 
45.70 -58.35 345.55 
46.80 -58.50 346.35 
47.40 -58.55 346.65 
47.80 -58.75 347.65 
48.45 -58.75 347.70 
49.20 -58.65 347.20 
49.95 -58.55 346.50 
50.60 -58.55 346.60 
51.25 -58.55 346.45 
51.85 -58.55 346.60 
52.50 -58.55 346.65 
53.15 -58.60 346.75 
53.80 -58.55 346.65 
54.35 -58.65 347.10 
55.00 -58.60 346.75 
55.75 -58.50 346.30 
57.50 -58.65 347.15 
58.25 -58.50 346.30 
58.90 -58.50 346.25 
59.60 -58.45 346.00 
60.25 -58.45 345.80 
60.75 -58.55 346.65 
61.30 -58.65 347.15 
61.95 -58.60 346.85 
64.95 -58.80 347.85 
65.85 -58.45 345.95 
67.55 -58.70 347.45 
68.20 -58.65 347.10 
68.85 -58.65 346.95 
69.55 -58.55 346.45 
70.25 -58.50 346.20 
70.85 -58.50 346.20 
71.45 -58.55 346.40 
74.45 -58.70 347.25 
75.25 -58.45 345.75 
76.35 -58.65 347.00 
77.65 -58.60 346.75 
78.20 -58.70 347.25 
79.35 -58.90 348.25 
80.00 -58.80 347.65 
80.70 -58.65 346.85 
82.05 -58.55 346.20 
82.55 -58.70 347.10 
83.10 -58.80 347.70 
83.85 -58.65 346.75 
84.45 -58.65 346.95 
85.05 -58.70 347.10 
85.80 -58.45 345.80 
87.00 -58.50 346.00 
87.75 -58.35 344.90 
88.40 -58.20 344.20 
89.10 -58.05 343.30 
91.10 -57.75 341.50 
91.75 -57.65 340.85 
92.45 -57.50 340.05 
93.05 -57.45 339.65 
93.65 -57.50 339.85 
94.25 -57.50 340.00 
94.85 -57.55 340.35 
95.50 -57.40 339.25 
96.15 -57.35 339.00 
96.75 -57.35 339.00 
97.30 -57.50 339.85 
97.95 -57.35 338.95 
98.55 -57.35 338.90 
99.15 -57.30 338.80 
99.75 -57.35 338.95 
100.35 -57.45 339.65 
100.90 -57.50 339.95 
101.60 -57.35 338.90 
102.15 -57.40 339.35 
102.75 -57.40 339.35 
103.40 -57.30 338.75 
104.00 -57.30 338.65 
104.65 -57.15 337.90 
105.25 -57.20 338.00 
105.85 -57.10 337.60 
106.45 -57.10 337.60 
107.00 -57.20 338.00 
107.60 -57.20 338.05 
108.80 -57.35 338.95 
109.40 -57.30 338.70 
110.60 -57.25 338.30 
111.20 -57.15 337.85 
113.60 -57.25 338.25 
114.20 -57.25 338.50 
114.80 -57.15 337.70 
117.20 -57.20 338.10 
119.60 -57.35 339.05 
120.20 -57.25 338.35 
120.80 -57.25 338.25 
121.40 -57.10 337.50 
122.00 -57.20 338.05 
123.20 -57.25 338.30 
123.80 -57.35 338.85 
124.40 -57.15 337.70 
124.95 -57.15 337.85 
125.55 -57.20 338.00 
126.20 -57.30 338.60 
126.75 -57.10 337.60 
127.95 -57.10 337.60 
129.20 -57.20 338.10 
129.75 -57.05 337.15 
130.35 -57.10 337.60 
130.95 -57.15 337.65 
-80.95 -57.20 341.00 
-80.35 -57.25 341.35 
-79.40 -57.25 341.15 
-77.90 -57.00 339.90 
-76.85 -56.95 339.45 
-76.05 -56.95 339.50 
-75.35 -57.00 339.75 
-74.60 -57.00 339.85 
-73.75 -57.00 339.75 
-72.90 -56.95 339.70 
-71.95 -56.90 339.40 
-71.65 -57.05 340.25 
-70.65 -57.00 339.85 
-69.55 -56.90 339.25 
-68.95 -56.95 339.60 
-68.25 -57.00 339.80 
-67.40 -56.95 339.60 
-66.85 -57.00 340.05 
-65.80 -56.95 339.55 
-64.95 -56.90 339.40 
-64.25 -56.95 339.60 
-63.60 -56.95 339.70 
-62.75 -56.95 339.65 
-61.95 -56.95 339.55 
-61.20 -56.95 339.55 
-60.25 -56.85 339.20 
-59.65 -56.90 339.50 
-59.00 -56.95 339.75 
-58.30 -57.00 339.95 
-57.75 -57.05 340.35 
-56.85 -57.00 340.05 
-55.90 -56.95 339.65 
-54.90 -56.85 339.20 
-54.30 -56.90 339.45 
-53.35 -56.85 339.15 
-52.50 -56.80 338.95 
-51.90 -56.85 339.20 
-51.15 -56.85 339.20 
-50.40 -56.85 339.20 
-49.65 -56.85 339.15 
-48.90 -56.85 339.20 
-48.05 -56.80 338.95 
-47.20 -56.75 338.70 
-46.65 -56.85 339.15 
-46.00 -56.85 339.30 
-45.20 -56.85 339.20 
-44.65 -56.90 339.55 
-43.90 -56.90 339.55 
-43.00 -56.85 339.20 
-42.30 -56.85 339.30 
-41.25 -56.75 338.65 
-40.85 -56.85 339.35 
-40.10 -56.85 339.25 
-39.35 -56.85 339.25 
-38.40 -56.75 338.75 
-37.65 -56.75 338.70 
-36.85 -56.75 338.60 
-35.95 -56.65 338.15 
-35.30 -56.70 338.35 
-34.60 -56.70 338.35 
-34.00 -56.75 338.60 
-33.55 -56.85 339.20 
-32.65 -56.75 338.80 
-32.15 -56.85 339.35 
-31.65 -56.90 339.75 
-30.60 -56.80 339.05 
-29.50 -56.65 338.15 
-28.75 -56.65 338.10 
-27.95 -56.60 337.85 
-27.35 -56.65 338.10 
-26.55 -56.60 337.85 
-25.80 -56.60 337.80 
-25.15 -56.60 338.00 
-24.40 -56.60 337.75 
-23.70 -56.60 337.80 
-22.85 -56.55 337.50 
-22.15 -56.55 337.50 
-21.65 -56.60 338.00 
-20.80 -56.55 337.60 
-20.15 -56.55 337.70 
-19.50 -56.60 337.80 
-18.60 -56.50 337.35 
-17.95 -56.80 339.10 
-16.95 -56.70 338.45 
-16.10 -56.60 337.95 
-15.35 -56.60 337.90 
-14.80 -56.65 338.15 
-13.90 -56.55 337.60 
-13.20 -56.55 337.70 
-12.65 -56.60 338.00 
-11.75 -56.50 337.45 
-11.05 -56.50 337.30 
-9.95 -56.60 338.10 
-9.25 -56.60 338.05 
-8.30 -56.50 337.35 
-7.15 -56.60 337.90 
-6.30 -56.50 337.45 
-5.35 -56.40 336.70 
-4.90 -56.50 337.30 
-4.20 -56.45 337.15 
-3.35 -56.40 336.75 
-2.95 -56.50 337.50 
-2.40 -56.60 337.85 
-1.75 -56.60 337.95 
-1.05 -56.60 337.90 
-0.25 -56.50 337.50 
0.55 -56.75 338.85 
4.60 -56.75 338.75 
5.75 -56.85 339.35 
6.55 -56.80 339.00 
8.10 -56.65 338.30 
8.70 -56.65 338.40 
9.30 -56.70 338.60 
10.15 -56.60 338.05 
10.70 -56.70 338.45 
11.25 -56.75 338.75 
11.95 -56.70 338.60 
13.30 -56.70 338.40 
13.95 -56.70 338.55 
14.90 -56.55 337.60 
15.45 -56.60 337.85 
16.10 -56.60 337.95 
16.85 -56.55 337.55 
17.40 -56.60 337.85 
18.15 -56.55 337.60 
18.80 -56.55 337.55 
19.25 -56.65 338.15 
19.90 -56.65 338.10 
20.85 -56.50 337.20 
21.20 -56.65 338.15 
21.85 -56.65 338.25 
22.45 -56.70 338.45 
23.20 -56.60 338.00 
24.20 -56.80 339.00 
24.95 -56.75 338.75 
26.40 -57.00 340.40 
29.70 -57.40 342.65 
32.55 -58.10 346.70 
33.15 -58.10 346.80 
33.90 -58.05 346.40 
34.45 -58.10 346.80 
35.15 -58.10 346.75 
35.85 -58.05 346.35 
36.30 -58.20 347.35 
36.90 -58.20 347.45 
37.60 -58.20 347.30 
38.20 -58.20 347.45 
39.05 -58.10 346.65 
39.55 -58.15 347.15 
40.35 -58.05 346.60 
41.05 -58.00 346.25 
41.60 -58.10 346.75 
42.35 -58.00 346.20 
42.95 -58.05 346.30 
43.70 -57.95 345.85 
44.55 -57.80 345.10 
46.80 -58.05 346.45 
47.40 -58.10 346.60 
47.95 -58.15 347.10 
48.50 -58.25 347.55 
49.15 -58.20 347.40 
50.00 -58.05 346.35 
50.65 -58.05 346.40 
51.15 -58.15 346.90 
51.90 -58.05 346.45 
52.50 -58.10 346.60 
53.10 -58.10 346.85 
53.75 -58.10 346.80 
54.30 -58.20 347.30 
55.00 -58.15 346.85 
57.55 -58.10 346.75 
58.20 -58.15 346.85 
58.90 -58.05 346.25 
59.60 -58.00 346.00 
60.15 -58.05 346.30 
60.60 -58.25 347.40 
61.35 -58.10 346.65 
61.95 -58.15 346.85 
62.65 -58.10 346.70 
63.15 -58.20 347.30 
64.40 -58.20 347.25 
64.90 -58.35 347.95 
65.85 -58.00 345.95 
68.25 -58.15 346.95 
68.85 -58.15 346.90 
69.60 -58.05 346.25 
70.20 -58.05 346.35 
70.80 -58.10 346.60 
71.45 -58.10 346.55 
72.15 -58.00 345.95 
73.20 -58.20 347.20 
74.40 -58.30 347.60 
75.15 -58.15 346.70 
77.50 -58.35 348.10 
78.20 -58.25 347.35 
80.00 -58.35 347.90 
80.70 -58.20 346.90 
81.35 -58.20 346.95 
81.95 -58.20 347.00 
82.55 -58.25 347.40 
83.15 -58.25 347.25 
83.85 -58.15 346.60 
84.45 -58.20 347.10 
85.00 -58.35 347.85 
85.85 -57.90 345.25 
86.35 -58.15 346.55 
87.00 -58.10 346.30 
89.10 -57.55 343.15 
89.80 -57.45 342.35 
91.00 -57.45 342.35 
91.85 -57.05 340.05 
92.40 -57.10 340.30 
93.00 -57.10 340.25 
94.20 -57.10 340.45 
94.85 -57.05 340.00 
95.50 -56.95 339.40 
96.15 -56.90 339.10 
96.80 -56.80 338.65 
97.35 -56.90 339.25 
98.55 -56.90 339.00 
99.15 -56.90 339.15 
100.95 -57.00 339.55 
101.60 -56.90 339.00 
102.75 -56.95 339.35 
103.35 -56.90 339.10 
104.00 -56.75 338.10 
104.65 -56.70 337.95 
105.20 -56.80 338.40 
105.80 -56.75 338.15 
106.45 -56.70 337.80 
107.05 -56.65 337.70 
107.65 -56.65 337.55 
108.20 -56.75 338.30 
108.80 -56.95 339.30 
109.40 -56.75 338.15 
110.60 -56.80 338.45 
111.20 -56.75 338.00 
111.80 -56.70 337.90 
113.00 -56.80 338.55 
113.60 -56.80 338.40 
114.20 -56.75 338.10 
114.80 -56.70 337.95 
115.40 -56.75 338.10 
116.00 -56.70 337.85 
116.60 -56.60 337.35 
117.80 -56.85 338.70 
118.40 -56.80 338.40 
119.60 -56.80 338.45 
120.20 -56.80 338.50 
120.80 -56.80 338.35 
121.40 -56.65 337.60 
122.00 -56.80 338.30 
122.60 -56.75 338.20 
123.20 -56.75 338.15 
123.80 -56.85 338.65 
124.40 -56.65 337.65 
124.95 -56.75 338.00 
125.60 -56.75 338.15 
126.20 -56.80 338.45 
126.75 -56.65 337.40 
127.35 -56.60 337.30 
127.95 -56.60 337.30 
128.55 -56.75 338.00 
129.20 -56.70 337.95 
129.75 -56.70 337.85 
130.35 -56.65 337.50 
131.00 -56.75 338.00 
-81.35 -56.85 341.75 
-80.75 -56.90 342.05 
-79.30 -56.75 340.95 
-78.15 -56.65 340.40 
-76.80 -56.45 339.40 
-76.30 -56.55 339.95 
-75.40 -56.55 339.85 
-74.50 -56.50 339.70 
-73.70 -56.50 339.70 
-72.80 -56.50 339.50 
-72.00 -56.45 339.45 
-71.75 -56.60 340.35 
-70.60 -56.50 339.80 
-69.75 -56.50 339.60 
-68.95 -56.50 339.60 
-68.25 -56.50 339.70 
-67.40 -56.50 339.65 
-67.00 -56.60 340.30 
-65.85 -56.50 339.65 
-64.95 -56.45 339.40 
-64.10 -56.45 339.30 
-63.45 -56.45 339.55 
-62.75 -56.50 339.60 
-61.75 -56.40 339.20 
-60.90 -56.40 339.05 
-60.20 -56.40 339.15 
-59.40 -56.40 339.10 
-58.85 -56.45 339.45 
-58.15 -56.45 339.60 
-57.50 -56.50 339.80 
-56.75 -56.50 339.85 
-55.95 -56.50 339.75 
-54.80 -56.35 338.95 
-54.20 -56.40 339.30 
-53.45 -56.40 339.35 
-52.65 -56.40 339.20 
-52.00 -56.45 339.40 
-51.15 -56.40 339.25 
-50.40 -56.40 339.15 
-49.65 -56.40 339.15 
-48.80 -56.35 339.05 
-48.00 -56.35 338.80 
-47.30 -56.35 338.95 
-46.65 -56.40 339.15 
-45.85 -56.35 339.05 
-45.10 -56.35 339.05 
-44.50 -56.40 339.30 
-43.85 -56.45 339.50 
-43.00 -56.40 339.20 
-42.30 -56.40 339.35 
-41.20 -56.25 338.55 
-40.90 -56.40 339.45 
-40.05 -56.35 339.15 
-39.20 -56.35 338.90 
-38.30 -56.25 338.55 
-37.65 -56.30 338.75 
-36.75 -56.25 338.40 
-36.10 -56.25 338.50 
-35.40 -56.25 338.60 
-34.55 -56.20 338.25 
-33.90 -56.25 338.40 
-33.60 -56.40 339.30 
-32.85 -56.40 339.25 
-32.10 -56.35 339.15 
-31.65 -56.45 339.75 
-30.75 -56.40 339.35 
-29.60 -56.25 338.40 
-28.90 -56.20 338.35 
-28.05 -56.20 338.15 
-27.25 -56.15 337.90 
-26.55 -56.15 337.90 
-25.85 -56.15 337.85 
-25.20 -56.15 338.00 
-24.35 -56.10 337.75 
-23.75 -56.15 337.90 
-22.80 -56.05 337.30 
-22.15 -56.10 337.50 
-21.75 -56.20 338.15 
-20.80 -56.05 337.50 
-20.20 -56.10 337.80 
-19.45 -56.10 337.70 
-18.60 -56.05 337.25 
-18.30 -56.20 338.30 
-17.95 -56.35 339.15 
-16.90 -56.20 338.35 
-16.15 -56.20 338.15 
-15.30 -56.10 337.70 
-14.60 -56.10 337.70 
-13.80 -56.05 337.45 
-12.65 -56.15 337.95 
-11.80 -56.05 337.50 
-11.00 -56.00 337.25 
-9.95 -56.15 338.10 
-9.10 -56.10 337.70 
-8.30 -56.05 337.45 
-7.20 -56.15 338.00 
-6.40 -56.10 337.75 
-5.40 -55.95 336.85 
-4.80 -56.00 337.10 
-4.10 -55.95 336.95 
-3.45 -56.00 337.05 
-2.85 -56.00 337.25 
-2.30 -56.10 337.60 
-1.70 -56.10 337.75 
-1.10 -56.15 338.00 
-0.25 -56.05 337.50 
0.20 -56.15 338.00 
1.30 -56.25 338.70 
3.95 -56.25 338.75 
6.60 -56.25 338.75 
9.30 -56.25 338.65 
9.95 -56.25 338.60 
10.55 -56.30 338.85 
11.25 -56.25 338.75 
11.75 -56.35 339.20 
13.15 -56.30 339.05 
13.85 -56.30 338.85 
14.80 -56.15 337.95 
15.45 -56.15 337.90 
16.00 -56.20 338.20 
16.75 -56.10 337.85 
17.25 -56.20 338.40 
19.85 -56.20 338.35 
20.80 -56.05 337.30 
21.25 -56.15 338.00 
21.90 -56.15 338.10 
22.55 -56.15 338.00 
23.00 -56.30 338.80 
25.00 -56.25 338.60 
27.10 -56.50 340.15 
29.65 -56.95 342.80 
33.90 -57.55 346.45 
34.50 -57.60 346.70 
35.15 -57.60 346.75 
35.75 -57.65 346.90 
36.25 -57.75 347.45 
36.75 -57.85 348.10 
37.60 -57.70 347.20 
38.20 -57.75 347.55 
38.95 -57.65 347.00 
39.45 -57.75 347.60 
40.35 -57.60 346.55 
41.05 -57.55 346.40 
41.45 -57.70 347.35 
42.30 -57.60 346.60 
42.95 -57.55 346.40 
43.70 -57.50 346.05 
44.50 -57.40 345.30 
45.00 -57.50 346.05 
45.50 -57.60 346.65 
46.00 -57.70 347.15 
46.70 -57.65 346.85 
47.40 -57.65 346.70 
48.15 -57.50 346.10 
48.70 -57.60 346.55 
49.15 -57.75 347.35 
49.90 -57.65 346.90 
50.70 -57.50 345.95 
51.15 -57.65 346.95 
52.00 -57.50 346.00 
52.50 -57.60 346.60 
53.05 -57.70 347.15 
54.35 -57.70 347.00 
55.10 -57.60 346.40 
56.25 -57.65 346.85 
57.40 -57.80 347.60 
58.10 -57.75 347.40 
59.05 -57.45 345.55 
59.45 -57.65 346.70 
60.05 -57.70 346.95 
60.80 -57.60 346.40 
61.35 -57.65 346.65 
62.00 -57.65 346.75 
62.65 -57.60 346.50 
63.20 -57.70 346.90 
64.40 -57.75 347.20 
66.40 -57.65 346.70 
68.25 -57.65 346.70 
68.90 -57.65 346.65 
69.55 -57.65 346.55 
70.20 -57.65 346.60 
70.70 -57.75 347.25 
71.40 -57.65 346.70 
72.10 -57.60 346.25 
73.30 -57.60 346.35 
74.40 -57.80 347.65 
77.45 -57.95 348.35 
78.15 -57.85 347.65 
78.85 -57.75 347.05 
79.45 -57.75 347.30 
80.65 -57.75 347.30 
81.40 -57.60 346.35 
81.95 -57.70 346.90 
82.60 -57.70 346.95 
83.20 -57.70 346.75 
83.80 -57.75 347.00 
84.45 -57.70 346.85 
85.00 -57.85 347.75 
85.85 -57.45 345.35 
86.35 -57.65 346.45 
88.40 -57.35 344.65 
89.80 -57.00 342.45 
91.05 -56.90 341.90 
91.85 -56.55 339.75 
93.00 -56.65 340.40 
93.65 -56.55 339.90 
94.25 -56.55 339.90 
94.90 -56.55 339.85 
95.50 -56.50 339.45 
96.15 -56.40 338.90 
96.80 -56.35 338.45 
97.35 -56.40 339.00 
97.90 -56.50 339.50 
99.70 -56.65 340.35 
100.95 -56.50 339.35 
102.15 -56.50 339.45 
102.80 -56.35 338.50 
103.35 -56.50 339.55 
104.05 -56.20 337.70 
104.60 -56.35 338.40 
105.20 -56.40 338.80 
105.80 -56.30 338.10 
106.40 -56.30 338.10 
107.05 -56.20 337.65 
107.65 -56.25 337.75 
108.80 -56.45 339.15 
109.40 -56.30 338.25 
110.60 -56.25 338.00 
111.80 -56.35 338.40 
112.40 -56.35 338.45 
113.00 -56.40 338.70 
113.60 -56.40 338.85 
114.20 -56.25 337.75 
114.80 -56.30 338.20 
115.40 -56.50 339.40 
116.00 -56.25 337.90 
116.60 -56.15 337.15 
119.00 -56.35 338.50 
119.60 -56.30 338.15 
120.20 -56.35 338.50 
120.80 -56.25 337.85 
121.40 -56.25 338.00 
122.00 -56.25 337.95 
122.60 -56.35 338.35 
123.20 -56.35 338.40 
123.80 -56.30 338.05 
124.40 -56.25 337.80 
125.00 -56.25 338.00 
125.60 -56.30 338.10 
126.20 -56.30 338.25 
126.75 -56.20 337.60 
127.35 -56.25 337.80 
127.95 -56.20 337.50 
128.55 -56.20 337.55 
129.20 -56.20 337.70 
129.75 -56.25 338.00 
130.35 -56.20 337.70 
131.00 -56.25 337.75 
-81.40 -56.40 341.85 
-80.60 -56.40 341.85 
-79.70 -56.40 341.70 
-78.70 -56.30 341.30 
-76.90 -56.05 339.60 
-76.40 -56.10 340.10 
-75.20 -56.00 339.50 
-74.50 -56.05 339.70 
-73.70 -56.05 339.65 
-73.00 -56.05 339.80 
-72.05 -56.00 339.50 
-71.60 -56.15 340.15 
-70.60 -56.05 339.70 
-69.85 -56.05 339.80 
-68.95 -56.05 339.65 
-68.10 -56.00 339.45 
-67.70 -56.10 340.15 
-66.95 -56.15 340.25 
-65.95 -56.05 339.80 
-65.05 -56.00 339.60 
-64.20 -56.00 339.45 
-63.40 -56.00 339.35 
-62.50 -55.95 339.20 
-61.70 -55.90 339.05 
-60.95 -55.95 339.15 
-60.15 -55.95 339.10 
-59.30 -55.90 338.85 
-58.60 -55.90 339.05 
-58.15 -56.00 339.65 
-57.30 -56.00 339.45 
-56.45 -55.95 339.30 
-55.95 -56.05 339.75 
-54.85 -55.90 339.05 
-54.10 -55.95 339.15 
-53.45 -55.95 339.25 
-52.65 -55.95 339.25 
-51.95 -55.95 339.25 
-51.20 -55.95 339.35 
-50.40 -55.95 339.20 
-49.65 -55.90 339.15 
-48.75 -55.90 338.95 
-48.05 -55.90 339.00 
-47.40 -55.90 339.20 
-46.60 -55.90 339.05 
-45.75 -55.85 338.80 
-45.05 -55.85 338.85 
-44.40 -55.90 339.05 
-43.65 -55.90 339.00 
-43.05 -55.95 339.35 
-42.35 -55.95 339.40 
-41.40 -55.85 338.90 
-40.80 -55.90 339.25 
-39.90 -55.85 338.85 
-39.15 -55.85 338.85 
-38.30 -55.80 338.55 
-37.70 -55.85 338.80 
-36.80 -55.80 338.45 
-36.10 -55.80 338.55 
-35.35 -55.80 338.40 
-34.65 -55.80 338.40 
-33.75 -55.70 338.05 
-33.45 -55.90 339.00 
-32.95 -55.95 339.45 
-32.05 -55.90 339.10 
-31.70 -56.00 339.90 
-30.75 -55.95 339.40 
-30.00 -55.90 339.30 
-29.00 -55.80 338.65 
-28.20 -55.75 338.40 
-27.35 -55.70 338.10 
-26.55 -55.70 337.95 
-25.95 -55.70 338.10 
-25.10 -55.70 337.85 
-24.30 -55.65 337.65 
-23.80 -55.70 338.05 
-22.95 -55.65 337.65 
-22.20 -55.65 337.65 
-21.65 -55.70 337.95 
-20.75 -55.60 337.40 
-20.25 -55.70 338.00 
-19.25 -55.55 337.20 
-18.70 -55.60 337.55 
-18.30 -55.75 338.30 
-17.85 -55.85 338.85 
-16.90 -55.75 338.35 
-16.05 -55.70 337.95 
-15.25 -55.65 337.65 
-14.55 -55.65 337.60 
-13.70 -55.55 337.20 
-12.55 -55.65 337.80 
-11.90 -55.65 337.90 
-10.90 -55.55 337.00 
-9.90 -55.70 338.05 
-9.20 -55.65 337.90 
-8.60 -55.75 338.20 
-7.15 -55.70 337.90 
-6.50 -55.70 337.95 
-5.40 -55.50 336.80 
-4.80 -55.55 337.00 
-4.05 -55.50 336.85 
-3.45 -55.55 337.05 
-2.85 -55.60 337.30 
-2.40 -55.65 337.85 
-1.55 -55.60 337.45 
-0.75 -55.55 337.10 
-0.35 -55.65 337.90 
3.40 -55.75 338.45 
3.90 -55.85 338.85 
4.80 -55.70 338.20 
5.40 -55.75 338.35 
8.55 -55.85 338.95 
9.30 -55.80 338.60 
10.05 -55.75 338.40 
10.60 -55.80 338.70 
13.00 -55.95 339.45 
13.70 -55.90 339.40 
14.60 -55.75 338.50 
15.45 -55.70 337.95 
15.95 -55.75 338.40 
16.80 -55.65 337.80 
17.30 -55.75 338.25 
18.25 -55.60 337.30 
18.75 -55.65 337.70 
19.25 -55.70 338.20 
19.85 -55.75 338.40 
20.85 -55.55 337.25 
21.20 -55.70 338.15 
21.90 -55.70 337.95 
22.65 -55.65 337.80 
23.05 -55.80 338.60 
23.75 -55.75 338.35 
24.10 -55.95 339.45 
24.90 -55.85 338.95 
26.95 -56.15 340.80 
27.70 -56.10 340.35 
32.30 -56.85 345.10 
32.75 -57.00 345.90 
33.20 -57.10 346.60 
33.85 -57.15 346.70 
