ply
format ascii 1.0
element vertex 2359
property float x
property float y
property float z
end_header
-47.20 49.95 296.45 
-46.75 50.00 296.80 
-45.90 49.95 296.50 
-45.35 50.00 296.80 
-44.90 50.05 297.25 
-43.85 49.95 296.55 
-42.80 49.85 295.90 
-42.10 50.05 297.05 
-41.10 49.95 296.45 
-40.25 49.85 296.15 
-39.70 49.90 296.40 
-38.90 49.85 296.15 
-38.35 49.90 296.35 
-37.35 49.80 295.70 
-37.15 49.95 296.60 
-36.15 49.85 296.00 
-35.65 49.90 296.25 
-33.45 50.05 297.20 
-32.70 50.00 297.00 
-31.55 49.85 296.00 
-31.05 49.90 296.35 
-30.20 49.85 296.00 
-29.70 49.90 296.25 
-28.85 49.80 295.90 
-28.15 49.80 295.80 
-27.50 49.80 295.75 
-27.10 49.90 296.30 
-26.25 49.80 295.85 
-25.85 49.90 296.40 
-25.00 49.80 295.95 
-24.25 49.80 295.75 
-23.65 49.80 295.85 
-23.30 49.90 296.45 
-22.45 49.80 295.95 
-21.95 49.90 296.35 
-21.20 49.85 296.05 
-20.35 49.75 295.65 
-19.85 49.80 295.95 
-19.20 49.80 295.95 
-18.15 49.90 296.35 
-17.45 49.85 296.30 
-16.75 49.85 296.10 
-16.25 49.90 296.35 
-15.75 49.95 296.70 
-15.10 49.95 296.60 
-14.45 49.90 296.55 
-13.80 49.90 296.55 
-13.40 50.00 297.05 
-12.30 49.80 296.00 
-11.95 49.95 296.65 
-11.20 49.90 296.30 
-10.45 49.85 296.05 
-9.90 49.85 296.15 
-9.30 49.85 296.20 
-8.65 49.85 296.20 
-7.75 49.75 295.55 
-7.20 49.75 295.70 
-6.55 49.75 295.60 
-5.85 49.70 295.40 
-5.20 49.70 295.35 
-4.90 49.80 296.05 
-2.95 49.75 295.70 
-2.45 49.80 296.05 
-1.75 49.80 295.80 
-1.25 49.85 296.10 
-0.45 49.75 295.70 
-0.05 49.85 296.20 
0.25 49.95 296.80 
1.05 49.85 296.30 
1.80 49.80 296.00 
2.35 49.85 296.10 
3.15 49.75 295.60 
3.45 49.85 296.30 
4.15 49.85 296.15 
4.60 49.90 296.50 
5.30 49.85 296.20 
5.90 49.85 296.30 
6.45 49.85 296.35 
6.90 49.95 296.75 
7.65 49.90 296.40 
8.90 49.85 296.20 
10.05 49.85 296.30 
10.45 49.95 296.85 
11.35 49.80 296.05 
11.80 49.90 296.40 
12.65 49.75 295.65 
13.55 49.90 296.55 
15.45 49.85 296.15 
16.65 49.85 296.10 
17.25 49.80 295.95 
17.65 49.90 296.55 
18.45 49.80 295.80 
18.95 49.85 296.05 
19.25 50.00 297.00 
19.90 49.95 296.85 
20.50 49.95 296.65 
21.05 49.95 296.85 
21.80 49.85 296.30 
22.30 49.90 296.55 
23.00 49.85 296.25 
24.00 49.95 296.70 
25.30 50.15 297.95 
26.00 50.10 297.70 
26.90 50.25 298.45 
27.60 50.20 298.05 
28.35 50.10 297.60 
29.40 50.15 297.85 
30.95 50.20 298.30 
37.70 51.00 302.90 
38.10 51.10 303.55 
38.90 50.95 302.75 
39.55 50.90 302.35 
42.40 50.95 302.50 
44.30 50.80 301.70 
44.75 50.90 302.15 
45.05 51.05 303.15 
45.75 50.95 302.65 
46.55 50.80 301.80 
47.00 50.90 302.25 
49.10 51.05 303.00 
49.60 51.05 303.15 
50.25 51.00 302.65 
50.75 51.05 303.05 
51.35 51.00 302.95 
52.05 50.90 302.30 
52.35 51.10 303.40 
52.85 51.15 303.70 
53.60 51.00 302.90 
54.10 51.10 303.20 
54.65 51.10 303.25 
55.20 51.05 303.15 
55.80 51.05 303.15 
56.35 51.05 303.05 
56.85 51.10 303.50 
57.40 51.10 303.45 
58.00 51.10 303.30 
58.65 51.00 302.80 
59.15 51.05 303.00 
59.60 51.15 303.55 
60.85 51.00 302.85 
61.45 51.00 302.80 
61.95 51.05 303.00 
62.65 50.90 302.25 
63.20 50.95 302.45 
63.60 51.10 303.20 
64.10 51.15 303.50 
64.65 51.10 303.30 
65.20 51.10 303.30 
65.75 51.10 303.35 
66.40 51.05 303.05 
66.95 51.05 303.10 
67.50 51.05 302.95 
68.10 51.00 302.80 
68.60 51.05 302.85 
69.15 51.05 302.95 
69.70 51.10 303.10 
70.25 51.10 303.10 
70.80 51.10 303.10 
71.40 51.05 302.90 
71.90 51.10 303.05 
72.45 51.10 303.10 
72.95 51.05 303.05 
73.45 51.20 303.70 
73.95 51.25 304.00 
74.55 51.15 303.60 
75.15 51.15 303.35 
75.65 51.15 303.55 
76.25 51.15 303.35 
76.80 51.15 303.40 
77.30 51.15 303.60 
77.90 51.15 303.45 
78.35 51.20 303.85 
79.45 51.20 303.70 
80.05 51.15 303.40 
80.60 51.10 303.25 
81.20 51.05 303.00 
81.75 51.10 303.05 
82.80 51.10 303.20 
83.30 51.15 303.45 
83.95 51.05 302.75 
84.45 51.10 303.15 
85.05 51.05 302.90 
85.55 51.10 303.15 
86.20 50.90 302.05 
86.70 51.00 302.45 
95.30 49.95 296.30 
97.55 49.70 294.65 
98.10 49.65 294.55 
110.65 49.70 294.85 
111.20 49.60 294.30 
-59.40 50.45 296.90 
-58.65 50.40 296.85 
-57.80 50.35 296.55 
-57.10 50.40 296.60 
-56.30 50.35 296.40 
-55.30 50.25 295.95 
-54.50 50.25 295.75 
-53.90 50.25 295.95 
-53.25 50.25 296.00 
-52.50 50.25 296.00 
-51.75 50.25 295.85 
-50.00 50.55 297.70 
-49.00 50.45 297.15 
-48.25 50.45 297.10 
-47.50 50.40 296.95 
-46.85 50.45 297.00 
-46.15 50.45 297.05 
-45.35 50.40 296.75 
-44.50 50.35 296.50 
-44.00 50.40 296.80 
-43.15 50.35 296.50 
-42.95 50.50 297.35 
-42.30 50.50 297.50 
-41.15 50.35 296.55 
-40.70 50.40 297.00 
-39.80 50.35 296.55 
-39.30 50.40 296.95 
-38.50 50.35 296.60 
-37.80 50.35 296.55 
-36.30 50.30 296.25 
-35.70 50.30 296.35 
-34.90 50.25 296.15 
-34.15 50.45 297.25 
-33.35 50.40 296.95 
-32.65 50.40 296.95 
-31.75 50.30 296.40 
-31.05 50.30 296.35 
-30.20 50.25 295.95 
-29.65 50.25 296.20 
-28.90 50.20 295.90 
-28.05 50.15 295.55 
-27.55 50.20 295.90 
-27.00 50.25 296.10 
-26.35 50.25 296.05 
-25.55 50.20 295.80 
-25.00 50.25 295.95 
-24.25 50.20 295.80 
-23.85 50.25 296.20 
-22.80 50.15 295.45 
-22.25 50.15 295.60 
-21.90 50.25 296.20 
-21.15 50.25 296.00 
-20.35 50.15 295.65 
-19.75 50.20 295.70 
-19.25 50.25 296.00 
-18.70 50.25 296.20 
-18.05 50.25 296.15 
-17.20 50.20 295.75 
-16.65 50.20 295.90 
-16.30 50.30 296.50 
-15.50 50.25 296.20 
-15.10 50.30 296.60 
-14.40 50.30 296.50 
-13.85 50.30 296.60 
-13.55 50.45 297.35 
-12.30 50.20 295.95 
-11.90 50.30 296.50 
-11.20 50.25 296.30 
-10.45 50.25 296.05 
-9.95 50.25 296.30 
-9.25 50.25 296.05 
-8.55 50.20 296.00 
-7.80 50.15 295.70 
-7.15 50.15 295.60 
-6.60 50.15 295.70 
-6.00 50.20 295.75 
-5.10 50.05 295.10 
-4.90 50.25 296.10 
-4.25 50.20 296.00 
-3.05 50.25 296.05 
-2.50 50.25 296.15 
-1.90 50.25 296.20 
-1.40 50.30 296.40 
-0.55 50.20 295.85 
-0.05 50.25 296.20 
1.95 50.15 295.55 
2.35 50.25 296.10 
3.00 50.20 295.95 
3.60 50.20 296.00 
4.10 50.25 296.25 
4.70 50.25 296.20 
5.45 50.20 295.85 
5.90 50.25 296.20 
6.85 50.10 295.40 
7.20 50.25 296.05 
7.50 50.35 296.80 
10.15 50.25 296.05 
10.55 50.30 296.55 
11.30 50.25 296.10 
12.10 50.15 295.55 
12.50 50.25 296.10 
12.75 50.40 297.15 
13.60 50.30 296.35 
14.05 50.35 296.80 
14.90 50.25 296.10 
15.40 50.30 296.35 
16.10 50.20 295.95 
16.60 50.25 296.15 
17.20 50.25 296.05 
17.65 50.30 296.50 
18.35 50.25 296.10 
18.95 50.25 296.05 
19.20 50.40 297.15 
19.80 50.40 297.10 
20.50 50.35 296.75 
21.15 50.30 296.60 
21.80 50.30 296.30 
23.05 50.25 296.15 
25.35 50.55 297.80 
26.00 50.50 297.70 
26.55 50.50 297.65 
27.15 50.50 297.75 
27.70 50.55 297.75 
28.05 50.65 298.55 
28.75 50.60 298.15 
37.75 51.35 302.60 
38.10 51.55 303.60 
38.85 51.40 302.90 
39.50 51.35 302.65 
40.75 51.30 302.15 
41.30 51.35 302.45 
42.45 51.30 302.25 
42.95 51.35 302.50 
44.25 51.25 301.90 
44.75 51.25 302.05 
45.15 51.40 302.75 
45.70 51.40 302.80 
46.50 51.25 302.00 
47.00 51.30 302.15 
49.10 51.45 302.90 
49.60 51.45 303.10 
50.05 51.55 303.55 
50.70 51.50 303.30 
51.40 51.40 302.60 
52.40 51.45 303.05 
53.50 51.50 303.25 
54.05 51.50 303.30 
54.60 51.55 303.45 
55.25 51.45 303.00 
55.75 51.50 303.40 
56.35 51.45 303.05 
56.75 51.60 303.85 
57.45 51.50 303.30 
58.00 51.45 303.10 
60.60 51.65 304.15 
61.55 51.35 302.25 
62.00 51.40 302.80 
62.70 51.30 302.15 
63.65 51.45 302.80 
64.70 51.45 303.05 
65.20 51.55 303.40 
65.80 51.50 303.25 
66.35 51.50 303.30 
67.00 51.45 302.75 
67.50 51.45 302.95 
68.10 51.45 302.80 
68.65 51.45 302.75 
69.25 51.35 302.40 
69.70 51.50 303.05 
70.25 51.50 303.15 
70.85 51.45 302.90 
71.40 51.45 302.70 
71.90 51.45 302.90 
72.90 51.60 303.60 
73.80 51.80 304.95 
74.50 51.60 303.80 
75.15 51.55 303.30 
75.65 51.55 303.50 
76.25 51.55 303.30 
76.85 51.50 303.10 
78.90 51.65 304.05 
79.35 51.75 304.45 
80.05 51.55 303.45 
80.55 51.60 303.60 
81.20 51.45 302.85 
81.75 51.50 302.95 
82.25 51.55 303.50 
82.85 51.45 302.80 
83.35 51.50 303.05 
83.95 51.45 302.85 
84.50 51.50 303.05 
84.95 51.60 303.55 
85.50 51.55 303.30 
86.25 51.25 301.55 
86.70 51.40 302.35 
97.55 50.05 294.50 
99.15 50.00 294.30 
100.20 50.05 294.50 
100.70 50.10 294.70 
101.70 50.15 294.95 
111.15 50.10 294.85 
115.35 50.35 296.40 
-59.55 50.85 297.10 
-58.55 50.80 296.70 
-57.75 50.75 296.50 
-57.05 50.75 296.55 
-56.20 50.70 296.25 
-55.30 50.65 295.90 
-54.60 50.65 295.90 
-53.90 50.65 295.90 
-53.30 50.70 296.10 
-52.50 50.65 295.90 
-51.80 50.65 295.90 
-49.55 51.05 298.10 
-48.85 51.05 298.15 
-47.85 50.95 297.60 
-47.20 50.95 297.65 
-46.30 50.90 297.30 
-45.35 50.80 296.75 
-44.80 50.85 297.05 
-44.05 50.80 296.90 
-43.50 50.85 297.10 
-43.00 50.90 297.45 
-42.40 50.95 297.65 
-41.40 50.85 297.05 
-40.80 50.85 297.15 
-39.85 50.75 296.65 
-39.40 50.85 297.10 
-38.80 50.85 297.25 
-38.00 50.80 296.95 
-35.75 50.70 296.45 
-34.90 50.65 296.10 
-34.35 50.70 296.30 
-33.85 50.75 296.70 
-33.15 50.75 296.55 
-32.60 50.80 296.85 
-31.85 50.75 296.60 
-31.00 50.70 296.20 
-30.25 50.65 296.10 
-29.65 50.65 296.20 
-28.90 50.65 296.00 
-28.05 50.55 295.60 
-27.75 50.70 296.30 
-27.15 50.70 296.40 
-26.50 50.70 296.35 
-25.55 50.60 295.75 
-25.20 50.70 296.35 
-24.35 50.65 295.95 
-23.70 50.60 295.90 
-22.90 50.55 295.65 
-22.35 50.60 295.85 
-21.90 50.65 296.25 
-21.05 50.60 295.75 
-20.35 50.55 295.65 
-19.75 50.60 295.75 
-19.20 50.65 296.00 
-18.70 50.65 296.20 
-18.10 50.65 296.25 
-17.40 50.65 296.15 
-16.55 50.60 295.70 
-16.15 50.65 296.20 
-15.20 50.55 295.45 
-15.00 50.70 296.40 
-14.30 50.65 296.25 
-13.65 50.65 296.20 
-13.40 50.80 297.00 
-12.30 50.65 296.05 
-11.95 50.75 296.60 
-11.25 50.70 296.45 
-9.05 50.55 295.65 
-8.60 50.65 296.00 
-7.75 50.55 295.50 
-7.15 50.55 295.60 
-6.65 50.60 295.85 
-5.95 50.55 295.65 
-5.25 50.55 295.50 
-4.85 50.60 295.95 
-4.35 50.65 296.20 
-2.05 50.70 296.55 
-1.40 50.70 296.55 
-0.60 50.60 296.00 
-0.05 50.65 296.20 
0.25 50.75 296.80 
1.10 50.65 296.25 
1.85 50.60 295.80 
2.35 50.65 296.05 
2.90 50.65 296.15 
3.60 50.60 295.95 
4.15 50.65 296.15 
4.65 50.70 296.35 
5.45 50.60 295.85 
5.90 50.65 296.20 
6.90 50.50 295.20 
11.30 50.65 296.15 
12.10 50.55 295.60 
12.50 50.65 296.15 
12.85 50.75 296.85 
13.60 50.70 296.40 
14.10 50.75 296.65 
14.65 50.75 296.80 
15.30 50.75 296.65 
16.05 50.65 296.05 
16.50 50.70 296.40 
17.20 50.65 296.20 
17.60 50.75 296.65 
18.25 50.70 296.50 
18.95 50.65 296.15 
19.25 50.80 296.95 
19.95 50.75 296.60 
20.40 50.80 297.00 
21.00 50.80 296.95 
21.65 50.80 296.85 
22.20 50.80 296.95 
23.05 50.65 296.10 
25.35 50.95 297.85 
26.00 50.90 297.70 
27.75 50.90 297.60 
28.35 50.90 297.55 
28.75 51.00 298.20 
29.55 50.85 297.35 
30.25 51.10 298.80 
33.95 51.65 302.00 
37.00 51.90 303.30 
37.60 51.85 303.20 
38.10 51.95 303.60 
38.90 51.80 302.80 
39.45 51.80 302.75 
40.00 51.85 302.95 
40.55 51.85 303.15 
41.25 51.75 302.50 
41.80 51.75 302.55 
42.50 51.70 302.05 
42.95 51.75 302.50 
44.30 51.60 301.60 
44.65 51.80 302.60 
45.10 51.85 303.00 
45.75 51.80 302.60 
46.45 51.70 302.20 
47.50 51.75 302.45 
48.30 52.00 303.90 
49.05 51.90 303.20 
49.65 51.85 303.05 
50.80 51.80 302.75 
51.45 51.75 302.45 
53.95 52.00 303.75 
54.50 52.05 304.05 
55.30 51.85 302.85 
55.70 51.95 303.60 
56.30 51.90 303.30 
56.80 52.00 303.80 
57.40 51.95 303.45 
58.00 51.90 303.30 
60.60 52.05 304.15 
63.65 51.85 302.80 
64.65 51.95 303.40 
65.25 51.90 303.05 
65.80 51.90 303.25 
66.40 51.85 302.90 
66.95 51.90 303.10 
67.50 51.85 302.90 
68.05 51.85 302.95 
68.70 51.80 302.45 
69.25 51.80 302.40 
69.70 51.90 303.15 
70.25 51.90 303.25 
70.90 51.80 302.50 
71.40 51.85 302.75 
72.40 51.90 303.20 
73.40 52.05 303.80 
73.90 52.10 304.20 
74.50 52.05 303.85 
75.15 51.95 303.30 
75.65 52.00 303.55 
76.30 51.90 303.05 
76.80 51.95 303.30 
77.40 51.90 303.15 
80.05 51.95 303.45 
80.50 52.10 304.05 
81.25 51.85 302.65 
81.75 51.90 302.90 
82.25 51.95 303.25 
82.80 51.95 303.40 
83.35 51.90 303.10 
83.90 51.90 303.15 
84.45 51.95 303.25 
85.05 51.90 302.90 
85.55 51.90 302.85 
86.10 51.85 302.80 
87.15 51.90 303.00 
87.65 52.05 303.80 
96.95 50.65 295.55 
97.50 50.55 295.00 
98.55 50.55 295.15 
99.20 50.35 293.75 
99.70 50.45 294.35 
100.25 50.40 294.10 
102.80 50.50 294.80 
-59.50 51.25 297.05 
-58.60 51.20 296.70 
-57.65 51.15 296.30 
-57.10 51.20 296.60 
-56.20 51.15 296.30 
-55.35 51.10 296.00 
-54.60 51.05 295.90 
-53.95 51.10 296.00 
-53.30 51.10 296.10 
-52.45 51.05 295.85 
-51.90 51.10 296.15 
-49.50 51.65 299.25 
-48.40 51.50 298.60 
-47.75 51.50 298.60 
-46.85 51.45 298.25 
-46.00 51.40 297.95 
-45.00 51.30 297.40 
-44.10 51.25 297.00 
-43.55 51.25 297.20 
-42.90 51.25 297.25 
-42.60 51.40 298.00 
-41.85 51.40 297.85 
-40.90 51.30 297.40 
-40.00 51.20 296.90 
-39.75 51.35 297.70 
-38.90 51.30 297.40 
-37.95 51.20 296.85 
-37.00 51.10 296.30 
-36.20 51.05 296.05 
-35.55 51.05 296.05 
-35.10 51.15 296.55 
-34.05 51.25 297.05 
-33.00 51.10 296.35 
-32.50 51.15 296.55 
-31.95 51.20 296.80 
-31.05 51.10 296.30 
-30.45 51.10 296.40 
-29.50 51.00 295.85 
-28.85 51.00 295.85 
-28.05 50.95 295.55 
-27.80 51.10 296.40 
-27.40 51.20 296.90 
-26.30 51.05 296.00 
-25.65 51.05 295.95 
-25.00 51.05 295.95 
-24.35 51.00 295.95 
-23.60 51.00 295.75 
-23.00 51.00 295.80 
-22.45 51.05 296.00 
-21.80 51.05 296.00 
-20.95 50.95 295.60 
-20.30 50.95 295.50 
-19.75 51.00 295.70 
-19.35 51.05 296.25 
-18.60 51.00 295.95 
-17.95 51.00 295.95 
-17.25 51.00 295.80 
-16.65 51.00 295.85 
-16.10 51.05 296.00 
-15.30 51.00 295.75 
-14.95 51.10 296.30 
-14.30 51.05 296.25 
-13.60 51.05 296.10 
-13.05 51.10 296.30 
-12.25 51.00 295.90 
-11.90 51.10 296.50 
-11.25 51.10 296.45 
-9.05 50.95 295.70 
-8.50 51.00 295.80 
-7.80 50.95 295.70 
-7.15 50.95 295.55 
-6.60 51.00 295.80 
-5.90 50.95 295.55 
-5.45 51.00 295.90 
-4.80 51.00 295.90 
-4.40 51.10 296.35 
-3.90 51.15 296.60 
-3.25 51.10 296.50 
-2.70 51.15 296.70 
-2.05 51.10 296.55 
-1.40 51.10 296.50 
-0.65 51.05 296.15 
-0.10 51.10 296.30 
0.30 51.15 296.70 
1.25 51.00 295.90 
1.75 51.05 296.15 
2.20 51.10 296.45 
2.90 51.05 296.20 
3.55 51.05 296.10 
4.10 51.10 296.30 
4.60 51.10 296.45 
5.35 51.05 296.10 
5.90 51.05 296.20 
6.65 51.00 295.85 
11.45 51.00 295.75 
12.10 50.95 295.60 
12.45 51.05 296.20 
12.90 51.15 296.70 
13.45 51.15 296.80 
14.00 51.20 296.95 
14.40 51.25 297.40 
15.30 51.15 296.60 
16.05 51.05 296.10 
16.45 51.15 296.65 
17.05 51.15 296.60 
18.15 51.15 296.70 
18.85 51.10 296.40 
19.25 51.20 297.00 
20.00 51.10 296.50 
20.45 51.20 296.90 
20.95 51.20 297.10 
21.65 51.20 296.85 
22.30 51.15 296.60 
23.40 51.15 296.80 
25.60 51.20 297.00 
28.30 51.35 297.80 
28.90 51.30 297.60 
29.45 51.35 297.75 
30.40 51.45 298.40 
30.70 51.60 299.25 
36.50 52.25 303.05 
36.95 52.35 303.50 
37.50 52.35 303.55 
38.20 52.30 303.20 
38.60 52.40 303.85 
39.60 52.10 302.20 
40.15 52.15 302.45 
40.55 52.25 303.10 
41.20 52.20 302.75 
41.75 52.20 302.80 
42.20 52.30 303.30 
42.90 52.20 302.70 
44.20 52.10 301.95 
44.60 52.20 302.75 
45.15 52.20 302.70 
45.80 52.20 302.50 
46.45 52.10 302.15 
47.35 52.30 303.15 
48.40 52.35 303.55 
48.85 52.40 303.90 
49.70 52.20 302.75 
50.15 52.30 303.20 
50.85 52.20 302.65 
51.40 52.20 302.55 
52.30 52.40 303.70 
53.30 52.45 304.15 
53.95 52.45 303.90 
54.50 52.45 303.90 
55.25 52.25 303.00 
55.75 52.35 303.40 
56.30 52.35 303.50 
56.85 52.35 303.40 
57.45 52.30 303.15 
58.00 52.30 303.25 
59.10 52.30 303.15 
60.80 52.30 303.15 
63.15 52.20 302.60 
63.70 52.25 302.75 
64.30 52.20 302.40 
64.70 52.30 303.05 
65.25 52.30 303.15 
65.80 52.30 303.20 
67.50 52.30 302.90 
68.10 52.25 302.75 
68.65 52.25 302.75 
69.20 52.25 302.70 
69.85 52.15 302.20 
70.90 52.20 302.40 
71.45 52.20 302.45 
71.85 52.35 303.45 
72.25 52.50 304.20 
72.80 52.50 304.15 
73.45 52.40 303.70 
73.95 52.45 303.85 
74.60 52.35 303.40 
75.10 52.40 303.50 
75.60 52.50 304.05 
76.20 52.40 303.55 
76.65 52.55 304.30 
77.35 52.40 303.40 
78.00 52.25 302.80 
80.00 52.45 303.80 
80.60 52.35 303.35 
81.20 52.35 303.15 
81.75 52.30 302.85 
82.25 52.35 303.30 
82.75 52.45 303.70 
83.35 52.35 303.15 
83.95 52.30 303.00 
84.45 52.40 303.45 
85.10 52.20 302.35 
85.60 52.25 302.70 
86.05 52.35 303.20 
86.70 52.15 302.15 
87.15 52.35 303.05 
87.70 52.40 303.35 
92.20 51.10 296.00 
92.70 51.20 296.40 
93.80 51.05 295.75 
94.35 50.95 295.10 
97.55 50.90 294.85 
98.60 50.90 294.85 
99.15 50.90 294.75 
99.65 50.90 294.65 
100.15 51.00 295.45 
100.70 50.90 294.60 
101.25 50.85 294.55 
101.70 50.90 294.85 
102.75 50.95 294.95 
115.35 51.20 296.40 
115.85 51.25 296.70 
-59.25 51.60 296.60 
-58.60 51.60 296.80 
-57.70 51.55 296.40 
-56.80 51.50 296.10 
-56.15 51.50 296.20 
-55.45 51.50 296.15 
-54.70 51.50 296.15 
-53.95 51.50 296.05 
-53.35 51.50 296.20 
-52.50 51.45 295.95 
-51.90 51.50 296.10 
-49.50 52.05 299.25 
-48.40 51.90 298.60 
-47.80 51.95 298.70 
-47.05 51.95 298.65 
-46.70 52.05 299.25 
-45.30 51.80 297.95 
-44.20 51.65 297.20 
-43.60 51.70 297.35 
-42.85 51.65 297.25 
-42.55 51.80 297.95 
-41.85 51.80 297.85 
-41.00 51.75 297.60 
-40.20 51.70 297.35 
-39.65 51.75 297.60 
-38.65 51.60 296.95 
-37.95 51.60 296.90 
-37.30 51.60 296.90 
-36.25 51.50 296.20 
-35.50 51.45 296.00 
-34.95 51.50 296.20 
-34.40 51.55 296.45 
-33.80 51.55 296.55 
-32.80 51.45 295.90 
-32.35 51.50 296.35 
-31.85 51.55 296.60 
-30.85 51.45 295.95 
-30.45 51.50 296.45 
-29.50 51.40 295.90 
-28.95 51.45 296.10 
-28.15 51.40 295.80 
-27.80 51.50 296.45 
-27.25 51.55 296.65 
-26.45 51.50 296.25 
-25.75 51.50 296.25 
-24.90 51.40 295.80 
-24.35 51.45 296.00 
-23.65 51.40 295.80 
-23.05 51.45 296.00 
-22.55 51.45 296.20 
-21.75 51.40 295.90 
-21.10 51.40 295.85 
-20.45 51.40 295.85 
-19.65 51.35 295.55 
-19.30 51.45 296.15 
-18.40 51.35 295.55 
-17.85 51.40 295.75 
-17.20 51.35 295.65 
-16.65 51.40 295.90 
-16.05 51.40 295.90 
-15.40 51.40 295.95 
-15.05 51.50 296.55 
-14.20 51.45 296.00 
-13.55 51.45 296.00 
-13.10 51.50 296.40 
-12.20 51.40 295.80 
-11.90 51.50 296.50 
-11.15 51.45 296.15 
-10.30 51.40 295.75 
-9.80 51.40 295.95 
-9.00 51.35 295.60 
-8.45 51.40 295.75 
-7.90 51.40 295.90 
-7.20 51.35 295.65 
-6.40 51.30 295.25 
-5.95 51.35 295.70 
-5.35 51.35 295.65 
-4.60 51.55 296.85 
-4.15 51.65 297.25 
-3.35 51.55 296.70 
-2.70 51.55 296.70 
-1.80 51.40 296.00 
-1.30 51.50 296.30 
-0.75 51.50 296.45 
-0.25 51.55 296.75 
0.45 51.50 296.35 
1.15 51.45 296.05 
1.60 51.50 296.45 
2.25 51.50 296.40 
2.90 51.45 296.25 
3.40 51.50 296.50 
4.05 51.50 296.40 
4.60 51.50 296.50 
5.35 51.45 296.05 
5.85 51.50 296.40 
6.65 51.40 295.85 
7.45 51.60 297.00 
8.45 51.70 297.45 
11.50 51.35 295.65 
12.10 51.35 295.50 
12.45 51.50 296.30 
12.90 51.55 296.65 
13.45 51.55 296.80 
13.85 51.65 297.30 
14.45 51.65 297.35 
15.30 51.50 296.55 
16.00 51.45 296.25 
16.45 51.55 296.70 
17.00 51.55 296.70 
17.55 51.60 296.90 
18.20 51.55 296.60 
18.80 51.55 296.55 
19.35 51.55 296.75 
20.10 51.45 296.20 
20.50 51.55 296.70 
21.05 51.55 296.80 
21.65 51.55 296.80 
22.30 51.55 296.60 
24.15 51.80 298.10 
24.85 51.70 297.60 
26.85 51.55 296.75 
27.70 51.75 297.75 
28.20 51.80 298.10 
28.95 51.70 297.55 
29.30 51.80 298.20 
29.85 51.80 298.20 
30.50 51.80 298.00 
30.85 51.90 298.70 
33.75 52.60 302.70 
34.20 52.70 303.20 
36.95 52.75 303.60 
37.50 52.75 303.60 
38.10 52.75 303.65 
38.60 52.80 303.80 
39.55 52.55 302.40 
40.10 52.60 302.65 
40.60 52.65 302.95 
41.00 52.75 303.60 
41.85 52.55 302.35 
42.30 52.65 302.85 
42.90 52.65 302.80 
43.40 52.65 302.95 
44.15 52.55 302.30 
44.60 52.60 302.65 
45.15 52.65 302.80 
45.80 52.60 302.45 
46.50 52.50 302.00 
47.35 52.70 303.10 
48.40 52.80 303.60 
49.70 52.60 302.70 
50.20 52.65 302.95 
50.70 52.75 303.35 
51.35 52.65 302.85 
51.85 52.70 303.20 
52.20 52.85 304.10 
52.75 52.90 304.15 
53.30 52.90 304.10 
53.95 52.85 303.90 
54.60 52.80 303.55 
55.20 52.75 303.30 
55.85 52.70 303.00 
56.30 52.75 303.40 
56.85 52.80 303.55 
57.45 52.75 303.30 
58.00 52.70 303.10 
59.05 52.80 303.55 
60.80 52.70 303.15 
61.30 52.80 303.60 
62.00 52.65 302.80 
62.45 52.75 303.45 
63.10 52.70 303.00 
63.60 52.70 303.15 
64.40 52.50 301.90 
64.70 52.70 303.10 
65.15 52.80 303.55 
65.80 52.75 303.30 
66.45 52.65 302.65 
67.45 52.80 303.45 
68.00 52.75 303.20 
68.65 52.65 302.75 
69.70 52.70 303.00 
70.30 52.70 302.90 
70.80 52.70 303.05 
71.75 52.85 303.80 
72.95 52.75 303.35 
73.45 52.85 303.65 
74.10 52.70 303.05 
74.55 52.80 303.55 
75.15 52.75 303.25 
76.20 52.80 303.60 
76.65 53.00 304.65 
77.35 52.80 303.50 
77.95 52.70 303.00 
80.60 52.80 303.45 
81.15 52.75 303.20 
81.80 52.60 302.40 
82.25 52.80 303.55 
82.75 52.85 303.75 
83.35 52.80 303.40 
83.95 52.70 302.75 
84.45 52.75 303.25 
85.05 52.75 303.05 
85.60 52.65 302.60 
86.10 52.70 302.95 
86.65 52.70 302.80 
87.15 52.75 303.25 
87.70 52.75 303.25 
92.20 51.50 295.80 
92.70 51.55 296.30 
93.30 51.45 295.50 
93.80 51.45 295.55 
94.35 51.45 295.50 
94.90 51.35 295.00 
96.95 51.45 295.55 
98.05 51.30 294.70 
98.60 51.30 294.85 
99.10 51.35 295.00 
99.65 51.25 294.60 
100.20 51.30 294.85 
100.75 51.20 294.10 
101.25 51.30 294.60 
101.70 51.35 294.95 
102.30 51.15 293.95 
102.80 51.30 294.65 
115.35 51.60 296.40 
115.85 51.65 296.70 
-59.30 52.00 296.75 
-58.35 51.95 296.30 
-58.05 52.05 297.00 
-56.90 51.95 296.25 
-56.40 52.00 296.60 
-55.40 51.90 296.15 
-54.75 51.90 296.20 
-53.85 51.85 295.85 
-53.40 51.90 296.25 
-52.50 51.85 295.95 
-51.95 51.90 296.25 
-49.80 52.35 298.60 
-49.00 52.30 298.40 
-48.05 52.20 297.95 
-47.50 52.25 298.25 
-47.25 52.40 299.05 
-46.70 52.45 299.20 
-45.60 52.30 298.55 
-44.40 52.15 297.50 
-43.60 52.10 297.30 
-42.90 52.10 297.30 
-42.45 52.15 297.75 
-41.75 52.15 297.65 
-41.20 52.20 297.95 
-40.30 52.10 297.50 
-39.50 52.10 297.25 
-38.55 52.00 296.70 
-38.25 52.10 297.45 
-37.45 52.05 297.15 
-36.35 51.90 296.35 
-35.50 51.85 296.00 
-35.10 51.95 296.55 
-34.30 51.90 296.20 
-33.70 51.90 296.45 
-32.80 51.85 295.85 
-32.30 51.90 296.20 
-30.80 51.80 295.90 
-30.35 51.90 296.25 
-29.55 51.85 295.95 
-28.35 51.85 296.20 
-27.85 51.95 296.50 
-27.25 51.95 296.65 
-26.45 51.90 296.25 
-25.80 51.90 296.30 
-25.05 51.85 296.10 
-24.30 51.80 295.90 
-23.80 51.85 296.20 
-23.20 51.90 296.25 
-22.55 51.90 296.25 
-21.85 51.85 296.10 
-21.20 51.85 296.15 
-20.55 51.85 296.15 
-19.75 51.80 295.70 
-19.10 51.80 295.75 
-18.60 51.85 296.00 
-17.85 51.80 295.75 
-17.25 51.80 295.75 
-16.65 51.80 295.95 
-16.05 51.80 295.95 
-15.50 51.85 296.15 
-15.30 52.00 297.05 
-14.10 51.80 295.80 
-13.40 51.75 295.65 
-13.05 51.90 296.30 
-12.30 51.85 296.05 
-11.85 51.90 296.40 
-11.00 51.80 295.80 
-10.00 51.65 295.05 
-9.75 51.80 295.85 
-9.00 51.75 295.60 
-8.35 51.75 295.50 
-7.80 51.75 295.65 
-7.15 51.75 295.55 
-6.45 51.75 295.45 
-5.95 51.80 295.70 
-5.30 51.75 295.65 
-5.00 51.90 296.30 
-4.60 51.95 296.80 
-4.05 52.00 296.95 
-3.15 51.90 296.35 
-2.55 51.90 296.35 
-1.80 51.85 296.00 
-1.20 51.85 296.05 
-0.80 51.90 296.55 
-0.05 51.85 296.20 
1.10 51.85 296.20 
1.80 51.80 295.95 
2.35 51.85 296.20 
2.95 51.85 296.15 
3.40 51.90 296.45 
3.95 51.95 296.60 
4.75 51.85 296.15 
5.25 51.90 296.45 
5.95 51.85 296.15 
7.45 52.00 297.00 
8.55 52.05 297.20 
10.80 51.80 295.95 
11.45 51.80 295.70 
11.85 51.85 296.25 
12.25 51.95 296.75 
12.85 51.95 296.80 
13.60 51.90 296.45 
14.15 51.90 296.45 
14.70 51.95 296.65 
15.20 52.00 296.85 
16.00 51.85 296.20 
16.40 51.95 296.75 
16.95 52.00 296.90 
17.50 52.00 297.00 
18.30 51.90 296.35 
18.85 51.90 296.50 
19.50 51.90 296.25 
20.10 51.85 296.15 
20.55 51.95 296.65 
21.15 51.95 296.60 
21.60 52.00 296.95 
22.30 51.95 296.60 
22.90 51.95 296.60 
24.15 52.20 298.10 
24.90 52.10 297.45 
27.75 52.10 297.55 
28.20 52.20 298.10 
28.90 52.15 297.70 
29.35 52.20 298.10 
29.85 52.20 298.20 
30.60 52.15 297.65 
34.00 52.85 301.75 
37.45 53.20 303.80 
38.25 53.05 303.00 
38.55 53.25 304.10 
39.40 53.10 303.00 
40.65 53.00 302.60 
41.85 52.95 302.30 
42.40 52.95 302.35 
42.80 53.10 303.15 
43.50 53.00 302.70 
44.05 53.00 302.60 
44.65 53.00 302.60 
45.05 53.15 303.30 
45.85 52.95 302.30 
46.90 53.00 302.60 
47.75 53.20 303.75 
48.40 53.15 303.45 
48.95 53.15 303.50 
49.65 53.10 303.10 
50.10 53.20 303.55 
50.65 53.20 303.55 
51.30 53.10 303.00 
51.80 53.15 303.25 
52.25 53.25 303.80 
52.95 53.15 303.35 
53.40 53.20 303.70 
53.90 53.25 303.95 
54.45 53.30 304.25 
55.20 53.15 303.40 
55.85 53.05 302.85 
56.35 53.10 303.15 
56.85 53.20 303.60 
57.45 53.15 303.15 
58.05 53.10 303.10 
59.05 53.20 303.60 
60.60 53.30 304.15 
61.40 53.10 302.95 
62.05 53.05 302.65 
62.50 53.15 303.15 
63.00 53.20 303.45 
63.60 53.15 303.20 
64.30 53.00 302.45 
64.75 53.10 302.80 
65.25 53.15 303.15 
66.40 53.10 303.05 
67.45 53.15 303.30 
68.55 53.15 303.25 
69.15 53.15 303.15 
69.65 53.20 303.45 
70.80 53.15 303.15 
71.80 53.25 303.80 
72.95 53.15 303.15 
73.50 53.20 303.35 
74.50 53.25 303.85 
75.65 53.25 303.75 
76.20 53.25 303.70 
76.65 53.40 304.55 
77.30 53.30 303.85 
77.95 53.10 302.90 
80.60 53.20 303.25 
81.15 53.20 303.35 
81.75 53.10 302.90 
82.25 53.20 303.40 
82.80 53.20 303.35 
83.30 53.30 303.90 
83.95 53.10 302.70 
84.50 53.15 302.95 
84.95 53.25 303.55 
85.60 53.05 302.60 
86.10 53.15 302.95 
86.60 53.15 303.15 
87.15 53.15 303.10 
87.70 53.20 303.40 
88.30 53.10 302.80 
92.20 51.85 295.60 
93.30 51.80 295.25 
93.80 51.80 295.45 
94.35 51.80 295.25 
94.90 51.70 294.70 
95.45 51.65 294.45 
96.45 51.80 295.20 
97.50 51.75 295.00 
98.05 51.75 295.15 
98.65 51.65 294.40 
99.15 51.65 294.60 
99.65 51.70 294.75 
100.20 51.70 294.85 
100.75 51.60 294.25 
101.25 51.65 294.40 
101.75 51.65 294.35 
-59.45 52.45 297.00 
-58.45 52.40 296.50 
-56.90 52.35 296.25 
-56.30 52.35 296.45 
-55.25 52.25 295.85 
-54.80 52.35 296.25 
-53.95 52.30 296.05 
-53.40 52.35 296.25 
-52.50 52.30 296.00 
-51.85 52.30 296.05 
-49.25 52.55 297.70 
-48.65 52.60 297.80 
-47.60 52.45 297.15 
-46.90 52.45 297.15 
-46.30 52.70 298.50 
-44.40 52.55 297.50 
-43.45 52.45 297.10 
-42.80 52.45 297.15 
-42.20 52.50 297.30 
-41.75 52.55 297.65 
-41.20 52.60 297.95 
-40.25 52.50 297.35 
-39.35 52.45 297.05 
-38.55 52.40 296.70 
-38.25 52.50 297.45 
-37.35 52.45 296.95 
-36.35 52.35 296.40 
-35.55 52.30 296.15 
-34.80 52.25 296.00 
-34.35 52.30 296.35 
-33.75 52.35 296.50 
-32.95 52.30 296.20 
-32.20 52.25 296.00 
-31.60 52.25 296.10 
-30.70 52.20 295.65 
-30.10 52.20 295.85 
-29.55 52.25 296.05 
-28.30 52.25 296.10 
-27.80 52.30 296.40 
-27.15 52.30 296.45 
-26.50 52.30 296.35 
-25.85 52.30 296.45 
-25.15 52.30 296.30 
-24.35 52.25 296.00 
-23.85 52.30 296.25 
-23.30 52.30 296.45 
-22.55 52.30 296.20 
-21.85 52.25 296.15 
-21.25 52.30 296.20 
-20.50 52.25 296.00 
-19.70 52.20 295.65 
-19.00 52.15 295.55 
-18.75 52.30 296.35 
-17.80 52.15 295.65 
-17.25 52.20 295.80 
-16.65 52.20 295.95 
-16.10 52.25 296.05 
-15.65 52.30 296.40 
-15.15 52.35 296.70 
-14.15 52.25 295.95 
-13.40 52.20 295.70 
-13.10 52.30 296.35 
-12.40 52.30 296.25 
-11.80 52.30 296.30 
-11.05 52.25 296.00 
-10.20 52.15 295.50 
-9.75 52.20 295.85 
-9.05 52.15 295.70 
-8.35 52.15 295.50 
-7.85 52.20 295.75 
-7.10 52.15 295.50 
-6.50 52.15 295.50 
-5.95 52.15 295.65 
-5.30 52.15 295.65 
-4.45 52.30 296.40 
-3.60 52.20 295.90 
-2.90 52.20 295.70 
-2.55 52.30 296.30 
-1.90 52.30 296.30 
-1.25 52.25 296.15 
-0.55 52.20 295.90 
-0.20 52.30 296.55 
0.75 52.15 295.70 
1.15 52.25 296.20 
1.70 52.25 296.20 
2.30 52.30 296.30 
3.05 52.20 295.85 
3.55 52.25 296.15 
4.20 52.25 296.00 
4.80 52.25 296.05 
5.30 52.25 296.20 
5.85 52.30 296.40 
7.50 52.35 296.80 
10.80 52.20 295.95 
11.85 52.30 296.30 
12.30 52.35 296.70 
13.00 52.30 296.45 
13.60 52.30 296.35 
14.40 52.20 295.75 
14.75 52.30 296.50 
15.25 52.35 296.70 
16.90 52.40 297.10 
17.70 52.30 296.45 
18.25 52.30 296.40 
19.00 52.25 296.00 
19.45 52.30 296.45 
19.90 52.35 296.75 
20.60 52.30 296.45 
21.20 52.30 296.50 
22.00 52.50 297.50 
22.70 52.45 297.10 
24.15 52.60 298.10 
24.95 52.45 297.30 
25.85 52.60 298.10 
27.10 52.55 297.90 
28.10 52.65 298.40 
28.80 52.60 298.00 
29.35 52.60 298.05 
30.00 52.55 297.85 
30.45 52.65 298.20 
37.60 53.55 303.25 
38.55 53.70 304.10 
39.35 53.55 303.25 
40.65 53.40 302.60 
42.70 53.55 303.45 
43.45 53.45 302.70 
44.00 53.45 302.80 
44.65 53.40 302.50 
45.15 53.45 302.70 
45.90 53.30 302.05 
47.90 53.55 303.25 
48.35 53.60 303.65 
48.90 53.60 303.70 
49.70 53.50 302.90 
50.70 53.55 303.30 
51.25 53.55 303.25 
51.80 53.55 303.40 
52.25 53.65 303.80 
54.45 53.70 304.10 
55.25 53.55 303.15 
55.85 53.50 303.00 
56.45 53.50 302.80 
56.85 53.60 303.45 
57.50 53.50 302.95 
57.95 53.60 303.50 
60.60 53.70 304.15 
61.40 53.50 303.00 
62.45 53.60 303.40 
63.00 53.60 303.50 
63.65 53.50 302.80 
64.25 53.45 302.60 
64.75 53.50 302.75 
65.25 53.55 303.05 
65.90 53.50 302.75 
66.30 53.60 303.50 
66.90 53.55 303.20 
67.45 53.55 303.25 
68.05 53.55 303.15 
68.50 53.60 303.45 
69.10 53.60 303.45 
69.65 53.60 303.40 
70.25 53.60 303.30 
70.75 53.60 303.35 
71.25 53.65 303.70 
71.80 53.65 303.60 
73.00 53.50 302.85 
73.60 53.50 302.65 
74.50 53.70 303.90 
76.10 53.75 304.35 
76.65 53.80 304.45 
77.30 53.65 303.70 
77.95 53.55 303.10 
79.00 53.60 303.25 
80.00 53.70 303.85 
80.60 53.60 303.30 
81.15 53.65 303.50 
81.80 53.45 302.60 
82.30 53.55 303.05 
82.85 53.55 303.15 
83.30 53.65 303.55 
83.90 53.65 303.45 
84.50 53.55 303.05 
85.00 53.65 303.55 
85.60 53.50 302.60 
86.10 53.55 303.05 
86.60 53.60 303.15 
87.20 53.55 302.95 
87.70 53.60 303.35 
88.25 53.60 303.25 
92.25 52.20 295.40 
92.70 52.40 296.35 
93.30 52.20 295.30 
93.80 52.25 295.50 
94.35 52.20 295.25 
94.95 52.05 294.55 
95.50 51.95 294.00 
96.50 52.05 294.45 
97.00 52.15 295.05 
97.55 52.10 294.70 
99.65 52.10 294.70 
100.20 52.10 294.70 
100.75 52.05 294.50 
101.25 52.00 294.30 
104.90 52.10 294.85 
-59.60 52.90 297.20 
-58.40 52.75 296.45 
-58.00 52.85 296.95 
-56.75 52.70 296.05 
-56.25 52.75 296.35 
-55.20 52.65 295.80 
-54.90 52.75 296.45 
-54.00 52.70 296.15 
-53.45 52.75 296.35 
-52.50 52.70 295.95 
-51.95 52.70 296.15 
-51.65 52.85 296.85 
-49.40 52.80 296.70 
-49.25 52.95 297.70 
-48.35 52.90 297.25 
-47.30 52.80 296.60 
-46.80 52.85 297.00 
-43.65 52.90 297.45 
-42.60 52.80 296.80 
-42.10 52.85 297.10 
-41.65 52.95 297.50 
-41.15 53.00 297.85 
-40.30 52.95 297.55 
-39.35 52.85 297.00 
-38.55 52.80 296.70 
-37.90 52.80 296.80 
-36.90 52.70 296.20 
-36.20 52.65 296.10 
-35.75 52.75 296.50 
-34.85 52.65 296.05 
-34.20 52.65 296.05 
-33.50 52.65 296.05 
-32.80 52.65 295.90 
-32.25 52.65 296.10 
-31.55 52.65 296.05 
-30.60 52.55 295.55 
-30.30 52.70 296.15 
-29.75 52.70 296.45 
-29.10 52.70 296.40 
-28.25 52.65 296.00 
-27.75 52.70 296.30 
-27.20 52.75 296.50 
-26.60 52.75 296.60 
-25.85 52.70 296.40 
-25.20 52.70 296.35 
-24.45 52.70 296.20 
-23.75 52.65 296.05 
-23.20 52.70 296.30 
-22.50 52.65 296.20 
-21.90 52.70 296.25 
-21.25 52.70 296.20 
-20.35 52.60 295.75 
-19.75 52.60 295.70 
-19.00 52.55 295.55 
-18.60 52.65 296.00 
-17.80 52.55 295.65 
-17.20 52.60 295.75 
-16.70 52.65 296.00 
-16.05 52.65 296.00 
-15.55 52.65 296.20 
-15.00 52.70 296.40 
-14.40 52.70 296.45 
-13.60 52.65 296.10 
-12.95 52.65 296.05 
-12.35 52.65 296.10 
-11.85 52.70 296.40 
-11.00 52.60 295.90 
-10.40 52.60 295.95 
-9.45 52.75 296.65 
-8.40 52.55 295.65 
-7.95 52.65 296.00 
-7.05 52.50 295.30 
-6.60 52.60 295.75 
-6.00 52.60 295.75 
-5.25 52.55 295.45 
-4.40 52.70 296.30 
-3.50 52.55 295.65 
-2.90 52.55 295.65 
-2.40 52.60 295.95 
-2.00 52.70 296.45 
-1.35 52.70 296.35 
-0.60 52.65 296.10 
0.00 52.65 296.10 
0.75 52.55 295.65 
1.10 52.65 296.20 
1.70 52.70 296.30 
2.30 52.65 296.25 
3.10 52.60 295.80 
3.55 52.65 296.10 
4.25 52.60 295.95 
4.95 52.55 295.60 
5.35 52.65 296.20 
5.80 52.70 296.55 
6.50 52.70 296.30 
7.25 52.60 295.85 
7.65 52.70 296.50 
8.35 52.65 296.20 
8.90 52.70 296.30 
12.15 52.55 295.45 
12.35 52.75 296.60 
12.90 52.75 296.70 
13.70 52.65 296.15 
14.35 52.65 296.00 
14.85 52.65 296.20 
15.45 52.95 297.90 
17.65 52.75 296.60 
18.35 52.65 296.15 
18.95 52.65 296.20 
19.55 52.65 296.05 
20.10 52.70 296.25 
20.90 52.85 297.30 
23.35 52.80 296.90 
24.45 52.85 297.15 
25.70 53.10 298.55 
26.10 53.20 299.10 
27.15 52.95 297.70 
27.75 52.95 297.70 
28.30 52.95 297.85 
28.80 53.00 298.00 
29.50 52.90 297.55 
30.40 53.05 298.35 
35.20 54.00 303.70 
38.20 53.90 303.10 
38.75 53.95 303.30 
39.35 53.95 303.15 
43.90 53.95 303.20 
44.65 53.85 302.60 
45.30 53.75 302.15 
48.35 54.05 303.75 
49.60 53.95 303.25 
50.05 54.00 303.60 
50.75 53.95 303.10 
51.30 53.90 303.00 
51.80 54.00 303.35 
52.25 54.10 304.00 
53.55 53.90 303.05 
54.55 54.05 303.70 
55.30 53.90 302.80 
55.85 53.95 303.05 
56.45 53.85 302.65 
57.45 53.95 303.15 
58.00 53.95 303.25 
59.65 53.95 303.25 
60.80 53.95 303.15 
61.40 53.95 303.15 
62.05 53.90 302.70 
62.55 53.90 302.90 
62.95 54.05 303.65 
63.75 53.80 302.35 
64.25 53.85 302.60 
64.70 53.95 303.00 
65.20 54.00 303.30 
65.80 53.95 303.20 
66.40 53.95 303.05 
66.95 53.95 303.10 
67.40 54.05 303.65 
67.95 54.05 303.55 
68.60 53.90 302.90 
69.05 54.05 303.60 
69.60 54.10 303.85 
70.25 54.00 303.35 
70.75 54.00 303.40 
71.20 54.10 304.00 
71.85 54.00 303.40 
72.40 54.00 303.45 
73.00 53.90 302.75 
73.60 53.90 302.70 
74.60 54.00 303.40 
75.70 54.00 303.30 
76.20 54.05 303.70 
76.70 54.15 304.00 
77.80 54.10 304.00 
78.35 54.15 304.05 
79.00 54.00 303.25 
80.00 54.10 303.80 
80.65 53.95 303.05 
81.15 54.05 303.55 
81.80 53.90 302.55 
82.80 54.05 303.60 
83.35 54.00 303.15 
83.90 54.00 303.25 
85.05 53.95 302.90 
85.60 53.90 302.70 
86.10 53.95 303.05 
86.65 53.90 302.80 
87.15 54.00 303.35 
87.70 54.00 303.30 
88.25 53.95 303.05 
92.75 52.75 296.05 
93.25 52.75 296.20 
93.80 52.65 295.50 
94.35 52.60 295.20 
94.90 52.50 294.70 
95.45 52.45 294.45 
95.95 52.60 295.25 
96.50 52.55 294.95 
97.00 52.50 294.70 
97.60 52.40 294.30 
98.05 52.55 295.10 
98.65 52.40 294.20 
100.75 52.35 294.05 
104.40 52.50 294.65 
104.90 52.55 295.10 
-59.50 53.30 297.10 
-58.50 53.20 296.55 
-57.90 53.20 296.75 
-56.85 53.15 296.20 
-56.00 53.05 295.90 
-55.25 53.05 295.90 
-54.75 53.10 296.20 
-54.00 53.10 296.15 
-53.35 53.10 296.15 
-52.60 53.10 296.10 
-52.45 53.25 297.05 
-51.65 53.25 296.90 
-50.75 53.40 297.90 
-48.75 53.20 296.75 
-48.50 53.35 297.50 
-47.25 53.20 296.55 
-46.85 53.25 297.00 
-45.75 53.10 296.25 
-43.55 53.30 297.25 
-42.55 53.20 296.70 
-42.00 53.25 296.95 
-41.55 53.30 297.30 
-41.05 53.35 297.65 
-40.15 53.30 297.25 
-39.20 53.20 296.70 
-38.55 53.20 296.70 
-38.15 53.30 297.25 
-37.05 53.15 296.45 
-36.10 53.05 295.95 
-35.70 53.15 296.40 
-34.90 53.10 296.20 
-34.00 53.00 295.75 
-33.40 53.00 295.80 
-32.75 53.05 295.85 
-31.90 52.95 295.50 
-31.50 53.05 296.00 
-30.75 53.00 295.80 
-30.45 53.15 296.45 
-29.70 53.10 296.30 
-29.05 53.10 296.30 
-28.20 53.05 295.90 
-27.75 53.10 296.30 
-27.15 53.15 296.45 
-26.60 53.15 296.60 
-26.00 53.15 296.70 
-25.25 53.15 296.50 
-24.60 53.15 296.45 
-23.75 53.05 296.05 
-23.00 53.00 295.85 
-22.50 53.05 296.10 
-21.85 53.05 296.10 
-21.25 53.10 296.25 
-20.25 52.95 295.50 
-19.75 53.00 295.70 
-19.05 52.95 295.60 
-18.55 53.00 295.90 
-17.95 53.05 295.95 
-17.25 53.00 295.80 
-16.85 53.10 296.35 
-16.00 53.00 295.90 
-15.50 53.05 296.15 
-14.95 53.10 296.30 
-14.55 53.20 296.80 
-13.65 53.05 296.20 
-12.90 53.00 295.90 
-12.35 53.05 296.15 
-11.85 53.10 296.45 
-10.95 53.00 295.75 
-10.40 53.00 295.90 
-9.45 52.90 295.20 
-9.20 53.05 296.05 
-8.70 53.10 296.35 
-7.85 53.00 295.85 
-6.95 52.90 295.15 
-6.60 53.00 295.80 
-6.00 53.00 295.85 
-5.55 53.05 296.15 
-4.85 53.00 295.95 
-4.25 53.05 296.05 
-3.55 53.00 295.80 
-2.90 53.00 295.70 
-2.20 52.95 295.45 
-1.80 53.05 296.05 
-1.40 53.10 296.45 
-0.65 53.05 296.15 
0.00 53.00 295.90 
0.65 53.00 295.90 
1.10 53.10 296.25 
1.75 53.05 296.05 
2.25 53.10 296.40 
3.10 53.00 295.80 
3.70 53.00 295.80 
4.15 53.05 296.10 
4.85 53.00 295.80 
5.30 53.05 296.25 
5.80 53.15 296.55 
6.50 53.10 296.30 
7.10 53.10 296.35 
7.70 53.10 296.25 
8.10 53.20 296.80 
11.00 53.20 296.95 
11.95 53.00 295.95 
12.50 53.05 296.20 
13.00 53.10 296.45 
13.60 53.10 296.40 
14.30 53.05 296.10 
14.85 53.10 296.30 
15.60 53.30 297.35 
16.05 53.35 297.75 
17.60 53.15 296.70 
18.30 53.10 296.40 
19.00 53.05 296.05 
19.45 53.10 296.35 
19.95 53.15 296.70 
20.40 53.20 297.00 
20.85 53.30 297.55 
21.30 53.35 297.85 
22.20 53.20 296.90 
22.65 53.25 297.30 
23.90 53.20 296.95 
24.45 53.25 297.15 
27.20 53.30 297.50 
27.65 53.40 297.85 
28.35 53.30 297.55 
28.70 53.45 298.30 
29.45 53.35 297.70 
30.05 53.35 297.65 
35.40 54.30 303.00 
38.10 54.40 303.60 
38.70 54.40 303.45 
39.50 54.25 302.60 
40.50 54.35 303.30 
44.00 54.30 302.90 
44.65 54.25 302.60 
45.15 54.25 302.70 
47.85 54.40 303.45 
49.05 54.35 303.15 
49.50 54.45 303.65 
50.20 54.30 303.00 
50.75 54.35 303.20 
51.35 54.30 302.90 
51.85 54.35 303.20 
52.40 54.35 303.25 
53.10 54.25 302.55 
53.50 54.40 303.25 
54.05 54.40 303.50 
54.70 54.35 303.05 
55.30 54.30 302.90 
55.70 54.45 303.60 
56.40 54.35 303.05 
56.90 54.40 303.35 
58.55 54.40 303.40 
59.65 54.40 303.25 
62.00 54.35 303.00 
63.05 54.40 303.20 
65.25 54.35 303.15 
65.75 54.45 303.45 
66.25 54.50 303.75 
66.95 54.35 303.00 
67.40 54.45 303.55 
67.85 54.55 304.20 
68.60 54.40 303.15 
69.15 54.35 303.15 
69.55 54.55 304.00 
70.20 54.45 303.50 
70.75 54.40 303.40 
71.30 54.40 303.35 
71.85 54.40 303.25 
72.45 54.35 302.95 
73.00 54.35 302.95 
73.60 54.30 302.70 
74.15 54.35 302.85 
75.05 54.55 304.05 
76.20 54.45 303.60 
76.70 54.60 304.30 
77.40 54.40 303.20 
77.85 54.50 303.80 
78.35 54.55 304.00 
80.00 54.50 303.65 
80.60 54.45 303.35 
81.15 54.45 303.55 
81.75 54.35 303.00 
82.40 54.25 302.40 
82.85 54.40 303.15 
83.35 54.45 303.40 
83.95 54.35 302.75 
84.45 54.45 303.35 
85.05 54.35 302.90 
85.50 54.45 303.45 
86.10 54.35 302.95 
87.15 54.45 303.45 
87.75 54.35 302.85 
88.25 54.40 303.05 
93.80 53.00 295.35 
94.35 53.00 295.40 
94.85 53.00 295.35 
95.45 52.85 294.45 
95.95 52.95 295.00 
97.55 52.90 294.60 
98.05 52.95 295.15 
98.60 52.90 294.65 
100.75 52.85 294.50 
104.95 52.80 294.30 
-59.45 53.70 297.00 
-58.70 53.65 296.90 
-57.85 53.60 296.70 
-56.95 53.55 296.40 
-56.25 53.55 296.35 
-55.40 53.50 296.15 
-55.00 53.60 296.65 
-53.85 53.45 295.85 
-53.65 53.60 296.70 
-53.05 53.65 296.95 
-52.45 53.70 297.10 
-51.50 53.60 296.65 
-50.75 53.60 296.60 
-50.60 53.75 297.60 
-49.10 53.50 296.15 
-48.45 53.50 296.25 
-48.50 53.75 297.50 
-47.25 53.60 296.60 
-46.85 53.65 297.05 
-45.85 53.55 296.45 
-45.25 53.60 296.65 
-44.95 53.70 297.40 
-44.65 53.85 298.00 
-43.40 53.65 297.00 
-42.90 53.70 297.30 
-41.85 53.60 296.65 
-41.40 53.65 297.05 
-40.95 53.75 297.50 
-39.80 53.60 296.60 
-39.00 53.50 296.35 
-38.60 53.60 296.80 
-37.85 53.60 296.75 
-36.95 53.50 296.20 
-36.30 53.50 296.30 
-35.60 53.50 296.20 
-34.85 53.45 296.05 
-34.00 53.40 295.75 
-33.30 53.40 295.65 
-32.90 53.50 296.15 
-32.25 53.50 296.10 
-31.65 53.50 296.20 
-31.10 53.55 296.50 
-30.65 53.60 296.90 
-29.95 53.60 296.80 
-29.05 53.50 296.30 
-28.20 53.45 295.90 
-27.75 53.50 296.30 
-27.00 53.45 296.10 
-26.65 53.55 296.65 
-26.05 53.60 296.85 
-25.30 53.55 296.60 
-24.50 53.50 296.30 
-23.75 53.45 296.10 
-23.05 53.45 295.90 
-22.45 53.45 296.05 
-21.80 53.45 296.05 
-21.20 53.45 296.05 
-20.30 53.35 295.60 
-19.75 53.40 295.70 
-19.15 53.40 295.85 
-18.40 53.35 295.55 
-17.90 53.40 295.90 
-17.20 53.40 295.70 
-16.90 53.55 296.50 
-16.00 53.40 295.90 
-15.25 53.35 295.60 
-14.95 53.50 296.35 
-14.55 53.60 296.85 
-13.55 53.45 296.00 
-12.90 53.45 295.95 
-12.45 53.50 296.35 
-11.90 53.55 296.55 
-10.60 53.50 296.45 
-9.75 53.40 295.90 
-9.10 53.40 295.75 
-8.70 53.50 296.35 
-7.75 53.35 295.50 
-6.90 53.25 295.00 
-6.65 53.40 295.85 
-6.15 53.45 296.15 
-5.65 53.50 296.45 
-4.90 53.45 296.10 
-4.25 53.45 296.05 
-3.70 53.45 296.20 
-2.80 53.35 295.50 
-2.40 53.45 296.00 
-2.00 53.50 296.45 
-1.35 53.50 296.35 
-0.75 53.50 296.40 
0.00 53.40 295.90 
0.50 53.45 296.20 
1.10 53.50 296.30 
1.75 53.45 296.10 
2.40 53.40 295.95 
2.95 53.45 296.10 
4.15 53.45 296.10 
5.15 53.55 296.60 
5.80 53.55 296.50 
6.60 53.45 296.00 
6.90 53.60 296.80 
7.80 53.45 296.10 
8.35 53.45 296.15 
8.90 53.45 296.20 
9.90 53.60 296.85 
11.15 53.55 296.60 
11.80 53.50 296.50 
12.65 53.40 295.75 
13.20 53.40 295.95 
13.60 53.50 296.45 
14.10 53.55 296.70 
14.85 53.50 296.25 
15.65 53.65 297.30 
16.55 53.80 298.05 
17.50 53.60 297.00 
18.30 53.50 296.40 
18.90 53.50 296.30 
19.35 53.55 296.70 
19.75 53.65 297.20 
20.35 53.65 297.15 
20.80 53.75 297.60 
21.35 53.75 297.80 
22.05 53.70 297.45 
22.70 53.65 297.20 
24.00 53.55 296.70 
24.25 53.75 297.70 
24.95 53.70 297.30 
26.00 53.75 297.70 
28.30 53.80 297.85 
30.40 53.85 298.35 
35.30 54.80 303.35 
36.00 54.70 302.80 
38.10 54.85 303.60 
38.75 54.80 303.40 
39.45 54.70 302.80 
39.95 54.75 303.25 
40.55 54.75 303.10 
41.20 54.65 302.70 
41.65 54.75 303.15 
42.25 54.75 303.00 
42.75 54.80 303.30 
43.15 54.90 303.95 
44.05 54.70 302.80 
44.60 54.70 302.70 
45.20 54.65 302.60 
47.30 54.80 303.30 
47.85 54.80 303.35 
48.30 54.90 304.05 
49.10 54.70 302.95 
49.55 54.80 303.40 
50.25 54.70 302.80 
50.65 54.85 303.50 
51.35 54.75 303.00 
51.90 54.70 302.80 
52.40 54.75 303.15 
53.00 54.75 302.95 
54.05 54.80 303.40 
54.75 54.70 302.80 
55.30 54.75 302.90 
55.60 54.95 304.10 
56.30 54.80 303.45 
57.05 54.70 302.65 
57.55 54.70 302.70 
59.05 54.85 303.45 
61.45 54.70 302.80 
61.90 54.85 303.50 
62.45 54.85 303.40 
63.05 54.80 303.20 
63.65 54.75 303.00 
65.20 54.80 303.30 
65.75 54.85 303.60 
66.30 54.85 303.45 
66.90 54.85 303.40 
67.40 54.85 303.60 
67.95 54.90 303.75 
68.50 54.85 303.60 
69.20 54.75 302.90 
69.55 54.95 304.15 
70.15 54.90 303.75 
70.80 54.80 303.25 
71.40 54.75 302.95 
71.90 54.75 303.00 
72.50 54.75 302.80 
72.95 54.80 303.15 
73.50 54.80 303.25 
74.05 54.85 303.35 
74.55 54.85 303.60 
75.15 54.80 303.15 
75.70 54.80 303.20 
77.30 54.95 303.90 
77.85 54.90 303.60 
78.85 55.00 304.25 
79.50 54.90 303.65 
80.05 54.85 303.30 
80.60 54.85 303.50 
81.20 54.80 303.20 
81.80 54.70 302.55 
82.30 54.75 302.95 
82.80 54.80 303.25 
83.90 54.85 303.50 
85.00 54.80 303.15 
85.55 54.80 303.10 
86.10 54.75 302.95 
86.65 54.75 302.75 
87.15 54.80 303.10 
87.80 54.65 302.40 
88.35 54.65 302.40 
93.80 53.45 295.70 
94.35 53.40 295.30 
94.90 53.35 294.90 
95.45 53.25 294.60 
96.00 53.25 294.60 
96.55 53.15 293.85 
97.55 53.30 294.70 
100.65 53.40 295.40 
-59.55 54.10 297.20 
-58.70 54.05 296.95 
-57.75 54.00 296.55 
-57.05 54.00 296.50 
-56.45 54.00 296.70 
-55.55 53.95 296.40 
-55.00 54.00 296.65 
-53.95 53.90 296.10 
-53.55 54.00 296.55 
-53.10 54.05 297.00 
-52.40 54.05 297.00 
-51.25 53.90 296.15 
-50.80 54.00 296.65 
-50.25 54.05 297.00 
-49.10 53.90 296.15 
-48.50 53.95 296.35 
-48.30 54.10 297.20 
-47.30 54.00 296.65 
-46.65 54.00 296.70 
-45.90 54.00 296.60 
-45.40 54.05 296.90 
-44.90 54.10 297.30 
-44.30 54.15 297.40 
-43.50 54.10 297.20 
-42.65 54.00 296.80 
-42.10 54.05 297.10 
-41.20 54.00 296.70 
-40.90 54.15 297.40 
-39.75 53.95 296.50 
-39.15 54.00 296.70 
-38.65 54.05 297.00 
-37.95 54.00 296.90 
-37.05 53.95 296.40 
-36.55 54.00 296.80 
-35.70 53.95 296.40 
-34.85 53.85 296.05 
-34.25 53.90 296.15 
-33.35 53.80 295.75 
-32.80 53.85 295.90 
-32.35 53.90 296.35 
-31.75 53.95 296.45 
-31.15 53.95 296.55 
-30.40 53.95 296.40 
-29.90 54.00 296.70 
-29.00 53.90 296.20 
-28.10 53.80 295.75 
-27.60 53.85 296.00 
-26.90 53.85 295.90 
-26.65 53.95 296.70 
-26.25 54.10 297.30 
-25.25 53.95 296.55 
-24.45 53.90 296.20 
-23.70 53.85 296.05 
-23.00 53.80 295.80 
-22.35 53.80 295.90 
-21.80 53.85 296.00 
-21.10 53.85 295.95 
-20.40 53.80 295.80 
-19.70 53.80 295.65 
-19.15 53.85 295.90 
-18.35 53.75 295.50 
-17.80 53.80 295.70 
-17.15 53.80 295.65 
-16.90 53.90 296.45 
-16.35 53.95 296.60 
-15.40 53.80 295.90 
-14.85 53.85 296.10 
-14.50 54.00 296.75 
-13.45 53.80 295.85 
-13.00 53.85 296.15 
-12.35 53.85 296.20 
-11.90 53.95 296.50 
-10.95 53.80 295.75 
-10.50 53.90 296.25 
-10.05 53.95 296.55 
-9.20 53.85 296.00 
-8.75 53.90 296.45 
-7.60 53.70 295.20 
-7.15 53.75 295.55 
-6.70 53.85 296.00 
-6.25 53.90 296.35 
-5.75 53.95 296.70 
-4.85 53.85 296.00 
-4.25 53.85 296.05 
-3.75 53.90 296.25 
-2.80 53.75 295.45 
-2.40 53.85 296.00 
-1.85 53.85 296.10 
-1.25 53.85 296.15 
-0.75 53.90 296.40 
0.00 53.85 295.95 
0.50 53.90 296.25 
1.15 53.85 296.20 
1.75 53.85 296.20 
2.60 53.75 295.50 
3.00 53.85 296.05 
3.55 53.85 296.10 
4.10 53.90 296.30 
5.10 54.00 296.80 
5.85 53.90 296.45 
6.50 53.90 296.25 
7.00 53.95 296.55 
7.75 53.90 296.25 
8.30 53.90 296.35 
8.90 53.90 296.30 
10.00 53.90 296.50 
11.20 53.90 296.45 
11.75 53.95 296.55 
12.55 53.85 296.00 
12.95 53.95 296.65 
13.55 53.95 296.50 
14.15 53.95 296.55 
16.90 54.05 297.10 
17.45 54.05 297.20 
18.35 53.90 296.25 
18.85 54.25 298.25 
19.70 54.10 297.40 
20.30 54.10 297.35 
20.75 54.15 297.75 
21.20 54.25 298.15 
21.75 54.25 298.40 
22.60 54.15 297.55 
23.95 54.00 296.90 
24.30 54.15 297.60 
24.95 54.10 297.40 
26.00 54.15 297.70 
28.10 54.60 300.20 
29.35 54.20 298.05 
30.70 54.45 299.25 
35.20 55.25 303.70 
36.00 55.10 302.85 
36.55 55.15 303.05 
37.05 55.15 303.20 
37.55 55.20 303.35 
38.15 55.20 303.45 
38.75 55.20 303.40 
39.40 55.15 303.10 
39.95 55.15 303.20 
40.55 55.15 303.15 
41.10 55.15 303.15 
41.80 55.10 302.70 
42.75 55.20 303.30 
43.40 55.15 303.00 
44.10 55.05 302.45 
45.15 55.10 302.90 
47.30 55.20 303.30 
48.30 55.30 303.95 
49.15 55.10 302.70 
49.60 55.20 303.20 
50.70 55.20 303.25 
51.35 55.10 302.85 
51.95 55.10 302.65 
52.45 55.15 303.10 
53.05 55.15 302.95 
53.50 55.20 303.20 
54.00 55.25 303.55 
54.70 55.15 303.05 
55.25 55.15 303.10 
55.65 55.35 303.95 
56.25 55.25 303.60 
56.90 55.20 303.35 
57.50 55.15 303.05 
57.95 55.25 303.40 
58.50 55.25 303.55 
59.05 55.25 303.50 
59.65 55.25 303.40 
60.25 55.20 303.20 
60.75 55.25 303.50 
61.40 55.20 303.15 
61.80 55.35 303.95 
62.50 55.20 303.10 
63.05 55.20 303.30 
63.65 55.15 302.85 
65.15 55.30 303.65 
65.65 55.35 304.05 
66.30 55.30 303.70 
66.85 55.30 303.65 
67.40 55.30 303.80 
68.00 55.25 303.45 
68.50 55.25 303.55 
69.25 55.10 302.60 
69.70 55.20 303.20 
70.20 55.30 303.60 
70.70 55.30 303.80 
71.40 55.15 302.75 
72.45 55.15 302.95 
73.45 55.30 303.65 
74.05 55.25 303.50 
74.55 55.35 303.85 
75.15 55.20 303.15 
75.75 55.20 303.00 
76.80 55.30 303.55 
78.45 55.25 303.40 
78.95 55.30 303.65 
79.50 55.30 303.55 
80.05 55.25 303.45 
80.55 55.30 303.70 
81.20 55.20 303.10 
82.30 55.25 303.25 
83.85 55.35 303.95 
84.50 55.15 302.90 
85.00 55.30 303.50 
85.60 55.15 302.70 
86.10 55.20 303.10 
86.65 55.15 302.80 
87.20 55.20 303.00 
93.85 53.80 295.25 
94.40 53.75 295.05 
94.90 53.80 295.20 
95.45 53.70 294.75 
96.00 53.65 294.35 
96.55 53.60 294.30 
97.60 53.60 294.35 
100.65 53.80 295.45 
-59.60 54.50 297.20 
-58.80 54.50 297.10 
-57.85 54.45 296.75 
-57.20 54.45 296.85 
-56.40 54.40 296.60 
-55.70 54.40 296.60 
-55.15 54.45 296.85 
-54.25 54.40 296.55 
-53.80 54.50 297.00 
-53.00 54.45 296.85 
-52.25 54.45 296.75 
-51.30 54.35 296.30 
-50.20 54.45 296.95 
-49.40 54.40 296.75 
-48.95 54.50 297.15 
-48.30 54.50 297.20 
-47.40 54.45 296.80 
-46.65 54.40 296.65 
-46.00 54.40 296.75 
-45.45 54.45 297.00 
-44.80 54.45 297.05 
-43.90 54.40 296.70 
-43.30 54.40 296.80 
-42.60 54.40 296.75 
-42.10 54.50 297.15 
-41.15 54.40 296.60 
-40.80 54.50 297.20 
-39.90 54.40 296.80 
-39.25 54.45 296.90 
-38.70 54.45 297.05 
-37.90 54.40 296.85 
-37.15 54.40 296.65 
-36.50 54.40 296.65 
-35.85 54.40 296.70 
-34.80 54.25 295.95 
-34.15 54.25 296.05 
-33.30 54.20 295.60 
-32.85 54.25 296.00 
-32.50 54.35 296.60 
-31.65 54.30 296.30 
-31.20 54.40 296.70 
-30.20 54.25 296.05 
-29.75 54.35 296.40 
-29.00 54.30 296.20 
-28.00 54.15 295.45 
-27.35 54.15 295.55 
-26.65 54.40 296.70 
-25.45 54.40 296.90 
-24.40 54.25 296.10 
-23.65 54.25 295.90 
-23.00 54.20 295.80 
-22.45 54.25 296.10 
-21.65 54.20 295.70 
-21.10 54.25 295.95 
-20.30 54.20 295.65 
-19.60 54.15 295.45 
-19.25 54.25 296.05 
-18.45 54.20 295.75 
-17.90 54.20 295.90 
-17.40 54.30 296.15 
-16.75 54.25 296.15 
-16.30 54.35 296.50 
-15.40 54.25 296.00 
-14.90 54.30 296.25 
-14.30 54.30 296.25 
-13.50 54.20 295.90 
-13.10 54.30 296.40 
-12.25 54.20 295.90 
-11.85 54.30 296.40 
-11.35 54.35 296.70 
-10.25 54.15 295.60 
-10.05 54.35 296.55 
-9.30 54.30 296.35 
-8.60 54.25 296.10 
-7.55 54.10 295.10 
-7.25 54.20 295.85 
-6.70 54.25 296.00 
-6.25 54.30 296.40 
-5.70 54.35 296.60 
-4.80 54.20 295.95 
-4.30 54.25 296.10 
